ply
format ascii 1.0
element vertex 865
property float32 x
property float32 y
property float32 z
property uint8 red
property uint8 green
property uint8 blue
end_header
-159.98629241184113 -2.0943352914151028 503.0 98 20 110
-167.98560703243317 -2.1990520559858577 770.0 101 21 110
-170.9853500151552 -2.238320842699891 558.0 114 25 109
-180.98449329089527 -2.3692167984133348 636.0 102 21 110
-181.98440761846928 -2.3823063939846794 621.0 93 18 110
-204.98243715267142 -2.6833670921256 796.0 150 38 102
-210.98192311811547 -2.7619046655536663 831.0 158 41 99
-217.98132341113353 -2.853531834553077 818.0 174 48 91
-238.97952429018767 -3.1284133415513096 933.0 59 9 100
-253.97823920379778 -3.3247572751214753 929.0 53 9 96
-317.9727561685342 -4.162491391687516 894.0 117 27 109
-365.96864389208656 -4.790791979112047 829.0 237 104 37
-365.96864389208656 -4.790791979112047 870.0 248 201 49
-402.9654740123248 -5.275107015251789 810.0 72 11 106
-431.96298951197105 -5.654705286820777 794.0 83 14 109
-441.9621327877111 -5.785601242534221 829.0 96 19 110
-93.98568334470077 -1.64052620510462 473.0 77 12 107
-137.97898193158198 -2.4084320883450805 507.0 101 21 110
-153.97654505408426 -2.6876705913416115 530.0 99 20 110
-159.9756312250226 -2.7923850299653106 503.0 83 14 109
-162.97517431049178 -2.8447422492771604 542.0 62 9 102
-169.97410817658653 -2.966909094338143 769.0 104 22 110
-172.97365126205568 -3.019266313649992 558.0 98 20 110
-182.9721282136196 -3.193790378022824 635.0 75 12 107
-205.9686252022166 -3.5951957260803376 795.0 155 40 100
-214.96725445862413 -3.7522673840158864 830.0 144 36 104
-216.9669498489369 -3.787172196890453 807.0 201 63 74
-238.96359914237752 -4.171125138510683 933.0 57 9 98
-311.95248088879407 -5.445150808432356 857.0 57 9 98
-365.9442564272392 -6.387580756045648 829.0 237 106 35
-365.9442564272392 -6.387580756045648 870.0 248 203 52
-391.9402965013054 -6.841343323415011 856.0 174 48 91
-402.9386211480257 -7.033319794225126 810.0 72 11 106
-437.9332904784994 -7.644154019530038 794.0 77 12 107
-441.93268125912493 -7.713963645279171 829.0 95 18 110
-92.97786851843155 -2.0287843082141706 473.0 109 24 110
-130.9688255474681 -2.857749939527488 503.0 99 20 110
-148.96454203490646 -3.2504178701495854 502.0 72 11 106
-152.9635901432261 -3.3376774102878293 764.0 87 15 109
-154.96311419738592 -3.381307180356951 529.0 93 18 110
-159.96192433278546 -3.490381605529756 503.0 87 15 109
-169.95954460358456 -3.7085304558753656 768.0 99 20 110
-172.95883068482428 -3.7739751109790487 559.0 95 18 110
-185.9557370368631 -4.057568616428341 632.0 80 13 108
-205.95097757846128 -4.4938663171195605 794.0 142 36 104
-212.94931176802064 -4.646570512361488 831.0 164 44 96
-216.94835987634028 -4.733830052499732 808.0 212 72 65
-300.92837015105266 -6.5662803954028535 862.0 55 9 97
-332.92075501760974 -7.2643567165088045 847.0 107 23 110
-365.91290191124676 -7.984247922649317 829.0 237 104 37
-365.91290191124676 -7.984247922649317 870.0 248 203 52
-391.9067146153244 -8.551434933547903 856.0 175 49 91
-402.9040969132034 -8.791398668928073 810.0 72 11 106
-414.9012412381623 -9.053177289342804 843.0 95 18 110
-415.9010032652422 -9.074992174377366 804.0 83 14 109
-431.89719569852076 -9.424030334930341 794.0 82 14 108
-442.89457799639973 -9.663994070310512 828.0 101 21 110
-91.96847389775127 -2.4082792443242913 473.0 112 25 110
-129.95545224682243 -3.403003280023455 502.0 101 21 110
-154.94688537121138 -4.057426987720274 528.0 112 25 110
-159.94517199608916 -4.188311729259637 503.0 96 19 110
-164.94345862096694 -4.3191964707990005 542.0 57 9 98
-167.94243059589363 -4.397727315722619 769.0 95 18 110
-171.94105989579586 -4.50243510895411 565.0 125 29 108
-177.93900384564918 -4.659496798801347 646.0 59 9 100
-190.93454907033143 -4.999797126803692 628.0 95 18 110
-204.92975161998925 -5.36627440311391 794.0 142 36 104
-211.92735289481814 -5.5495130412690195 831.0 163 43 97
-218.92495416964704 -5.732751679424129 813.0 227 88 50
-238.91810066915818 -6.256290645581583 933.0 59 9 100
-305.8951414425205 -8.010146182209056 862.0 67 10 104
-328.8872599169583 -8.612215993290128 890.0 136 33 106
-332.88588921686056 -8.71692378652162 847.0 109 24 110
-365.874580941054 -9.58076308068142 829.0 236 103 38
-365.874580941054 -9.58076308068142 870.0 248 205 55
-391.86567139041847 -10.26136373668611 856.0 174 48 91
-407.86018859002735 -10.680194909612075 808.0 87 15 109
-413.8581325398807 -10.83725659945931 846.0 98 20 110
-438.8495656642696 -11.49168030715613 793.0 83 14 109
-442.84819496417185 -11.596388100387621 828.0 102 21 110
-92.95662394781431 -2.8400817285134843 473.0 88 16 109
-128.93983321793598 -3.9394682040670914 502.0 93 18 110
-154.92770657969052 -4.733469547522474 528.0 99 20 110
-155.92724017052723 -4.764008060732296 765.0 75 12 107
-159.92537453387408 -4.8861621135715865 503.0 82 14 108
-169.92071044224122 -5.19154724566981 768.0 102 21 110
-170.92024403307792 -5.222085758879633 560.0 96 19 110
-176.9174455780982 -5.4053168381385674 596.0 64 9 102
-191.9104494406489 -5.863394536285903 626.0 109 24 110
-203.90485253068945 -6.229856694803773 795.0 131 32 107
-217.89832280240344 -6.657395879741286 827.0 166 44 95
-218.89785639324015 -6.687934392951108 814.0 224 86 52
-236.88946102830099 -7.2376276307279115 934.0 57 9 98
-279.86940543427966 -8.550783698750276 913.0 70 10 105
-309.85541315938104 -9.466939095044948 858.0 59 9 100
-331.84515215778873 -10.13878638566104 847.0 107 23 110
-363.83022706456353 -11.116018808375358 830.0 208 69 68
-365.82929424623694 -11.177095834795002 870.0 247 209 60
-416.80550737890934 -12.734560008495945 842.0 96 19 110
-433.7975784231334 -13.253714733062926 793.0 82 14 108
-442.79338074066385 -13.528561351951328 828.0 102 21 110
-89.94517443171861 -3.140954703225081 474.0 91 17 110
-128.92141668546336 -4.502035074622616 502.0 83 14 109
-151.90740570690255 -5.304723498780136 528.0 95 18 110
-159.9025323230553 -5.583919472400144 503.0 82 14 108
-163.9000956311317 -5.723517459210147 765.0 88 16 109
-174.89339472834175 -6.107411922937658 562.0 118 27 109
-191.88303878766638 -6.700703366880173 625.0 122 28 109
-209.8720736740101 -7.328894307525189 792.0 109 24 110
-219.86598194420108 -7.677889274550198 826.0 189 55 83
-220.86537277122017 -7.712788771252699 813.0 166 44 95
-277.8306499113086 -9.70206008329525 914.0 64 9 102
-308.8117655489006 -10.783944481072778 858.0 59 9 100
-331.7977545703398 -11.5866329052303 847.0 104 22 110
-365.77704268898907 -12.773215793115329 829.0 234 100 40
-365.77704268898907 -12.773215793115329 870.0 247 207 58
-415.74658403994385 -14.518190628240374 804.0 82 14 108
-416.7459748669629 -14.553090124942875 842.0 95 18 110
-433.73561892628754 -15.14638156888539 793.0 82 14 108
-442.73013636945944 -15.460477039207898 828.0 101 21 110
-89.93061326166506 -3.5333834183161437 474.0 98 20 110
-127.90131663881253 -5.025256417160738 500.0 95 18 110
-134.8959198924976 -5.300075127474216 515.0 67 10 104
-151.8828135085899 -5.967491995378376 528.0 104 22 110
-157.8781877260342 -6.203050889932785 766.0 87 15 109
-159.87664579851565 -6.281570521450922 503.0 82 14 108
-170.86816519716362 -6.713428494800673 562.0 125 29 108
-186.85582977701517 -7.341585546945765 624.0 107 23 110
-205.84118146558893 -8.087522046368063 794.0 145 37 103
-212.835784719274 -8.36234075668154 831.0 169 46 94
-219.83038797295904 -8.637159466995017 813.0 207 68 70
-308.76177219838337 -12.131283069552094 858.0 60 9 101
-317.7548335245499 -12.484621411383708 894.0 117 27 109
-333.7424981044015 -13.1127784635288 846.0 110 24 110
-365.7178272641046 -14.369092567818985 829.0 232 97 43
-365.7178272641046 -14.369092567818985 870.0 247 207 58
-404.68775967749275 -15.900225382422647 809.0 70 10 105
-416.67850811238145 -16.371343171531464 842.0 96 19 110
-432.66617269223303 -16.99950022367656 794.0 80 13 108
-88.91529172078535 -3.8821254755148886 473.0 83 14 109
-124.88102769773222 -5.452423420666978 497.0 99 20 110
-138.86770279987823 -6.06309484378168 513.0 64 9 102
-153.8534261236061 -6.717385654261717 528.0 98 20 110
-159.84771545309724 -6.979101978453732 503.0 82 14 108
-166.84105300417025 -7.284437690011083 766.0 95 18 110
-169.83819766891583 -7.41529585210709 563.0 120 28 109
-187.82106565738925 -8.200444824683135 841.0 104 22 110
-188.8201138789711 -8.244064212048471 622.0 80 13 108
-208.8010783106083 -9.116451959355187 793.0 109 24 110
-212.79727119693572 -9.29092950881653 831.0 171 46 93
-220.78965696959057 -9.639884607739218 813.0 203 64 73
-308.7059004687941 -13.47839069588877 858.0 60 9 101
-317.69733446303076 -13.870965182176793 894.0 117 27 109
-333.6821060083405 -14.568875380022167 846.0 109 24 110
-365.65164909896 -15.964695775712913 829.0 231 95 44
-365.65164909896 -15.964695775712913 870.0 247 207 58
-397.6211921895794 -17.36051617140366 854.0 142 36 104
-404.6145297406524 -17.66585188296101 809.0 70 10 105
-421.598349507544 -18.407381468171717 842.0 98 20 110
-87.89865801067566 -4.222075309878228 473.0 104 22 110
-123.85719992413388 -5.949287936646595 496.0 99 20 110
-139.8387741078931 -6.716937992988091 512.0 67 10 104
-143.8341676538329 -6.908850507073465 757.0 55 9 97
-151.8249547457125 -7.2926755352442125 527.0 109 24 110
-159.8157418375921 -7.676500563414961 503.0 88 16 109
-160.81459022407705 -7.724478691936304 766.0 96 19 110
-169.8042257024416 -8.156281848628396 563.0 114 25 109
-172.80077086189647 -8.300216234192426 769.0 96 19 110
-177.79501279432122 -8.540106876799143 597.0 55 9 97
-186.78464827268579 -8.971910033491236 842.0 104 22 110
-190.7800418186256 -9.16382254757661 621.0 55 9 97
-195.77428375105032 -9.403713190183327 639.0 57 9 98
-206.76161600238478 -9.931472603918106 794.0 152 39 101
-212.7547063212945 -10.219341375046167 831.0 172 47 92
-219.74664502668915 -10.55518827469557 813.0 215 75 62
-240.7224611428731 -11.562728973643784 932.0 55 9 97
-317.6337869022143 -15.257044869787235 894.0 117 27 109
-333.6153610859735 -16.02469492612873 846.0 110 24 110
-365.57850945349196 -17.559995038811724 829.0 234 100 40
-365.57850945349196 -17.559995038811724 870.0 247 207 58
-397.54165782101035 -19.095295151494714 854.0 145 37 103
-406.5312932993749 -19.527098308186808 808.0 69 10 105
-421.5140190966492 -20.24677023600696 842.0 98 20 110
-433.5001997344686 -20.82250777826308 793.0 79 13 108
-443.4886835993181 -21.302289063476515 828.0 102 21 110
-85.88213998889334 -4.500892236893146 473.0 96 19 110
-113.84376696202142 -5.9662990116955665 487.0 102 21 110
-126.82595091383088 -6.6466664428538325 495.0 102 21 110
-154.78757788695896 -8.112073217656253 526.0 102 21 110
-159.7807255607318 -8.37375299887097 503.0 87 15 109
-161.77798463024095 -8.478424911356857 767.0 88 16 109
-178.7546867210687 -9.368136167486899 597.0 83 14 109
-178.7546867210687 -9.368136167486899 769.0 98 20 110
-188.74098206861444 -9.891495729916334 841.0 115 26 109
-208.71357276370594 -10.938214854775206 794.0 112 25 110
-214.70534997223336 -11.252230592232866 830.0 180 51 88
-218.69986811125167 -11.461574417204641 814.0 205 66 71
-279.6162697312807 -14.654067748024199 913.0 72 11 106
-333.54226460802766 -17.48020938514315 846.0 110 24 110
-361.50389158115576 -18.94561615994557 872.0 244 220 79
-365.49840972017404 -19.154959984917344 829.0 236 103 38
-406.44222064511155 -21.300734190878032 808.0 69 10 105
-415.42988645790274 -21.771757797064524 844.0 109 24 110
-433.40521808348507 -22.713805009437507 793.0 82 14 108
-444.39014296578534 -23.289500528109887 827.0 107 23 110
-92.85042536183344 -5.272429243394058 472.0 114 25 109
-115.81343378465247 -6.5763633573517275 485.0 109 24 110
-139.77483387802886 -7.936990258872775 512.0 90 17 109
-150.75714225415967 -8.560610922069921 526.0 115 26 109
-160.74105895973318 -9.127538797703691 503.0 74 11 106
-163.73623397140523 -9.297617160393822 767.0 80 13 108
-174.71854234753604 -9.92123782359097 770.0 96 19 110
-206.6670758053712 -11.73540702561903 795.0 110 24 110
-211.65903415815797 -12.018870963435916 831.0 174 48 91
-218.6477758520594 -12.415720476379555 814.0 180 51 88
-240.6123926043211 -13.662961802773848 932.0 57 9 98
-279.5496677560577 -15.87398051774555 913.0 74 11 106
-310.4998095433355 -17.631456932210234 858.0 69 10 105
-331.4660346250398 -18.82200547104115 847.0 101 21 110
-365.4113514239897 -20.74956024819597 829.0 234 100 40
-365.4113514239897 -20.74956024819597 870.0 247 207 58
-409.34058492851307 -23.244042900984557 807.0 95 18 110
-415.33093495185716 -23.584199626364818 844.0 102 21 110
-432.3035933513321 -24.547977014942227 794.0 82 14 108
-444.2842933980203 -25.22829046570275 827.0 102 21 110
-92.82653625323363 -5.677514176741655 472.0 128 31 107
-114.7855018185147 -7.020582046508498 484.0 110 24 110
-141.73514137590513 -8.668892613949623 511.0 117 27 109
-149.72021976328006 -9.157280930228474 525.0 110 24 110
-149.72021976328006 -9.157280930228474 761.0 62 9 102
-159.70156774749873 -9.767766325577039 503.0 72 11 106
-176.66985932067047 -10.8055914976696 770.0 101 21 110
-186.65120730488914 -11.416076893018165 601.0 98 20 110
-187.649342103311 -11.477125432553022 842.0 102 21 110
-194.63628569226407 -11.904465209297017 648.0 59 9 100
-211.6045772654358 -12.942290381389578 794.0 145 37 103
-217.59338605596702 -13.308581618598717 828.0 189 55 83
-220.58779045123262 -13.491727237203285 814.0 200 62 75
-240.55048641966997 -14.712698027900416 932.0 60 9 101
-279.47774355812277 -17.09359106975982 913.0 74 11 106
-311.41805710762253 -19.047144334875227 858.0 69 10 105
-365.31733622240336 -22.34376546975748 829.0 235 101 39
-365.31733622240336 -22.34376546975748 870.0 247 207 58
-409.2352673529655 -25.029901209291165 807.0 91 17 110
-433.1905025150903 -26.49506615812772 793.0 82 14 108
-445.1681200961527 -27.227648632546 827.0 101 21 110
-92.80087986119013 -6.082491018403287 472.0 125 29 108
-113.75591724920079 -7.455956732236287 483.0 122 28 109
-142.6938260231203 -9.35264747991043 511.0 96 19 110
-149.67883848579052 -9.81046938452143 524.0 118 27 109
-150.67669740902912 -9.875872513751572 760.0 64 9 102
-159.65742771817656 -10.464500676822858 503.0 69 10 105
-176.6210294132328 -11.576353873735288 570.0 55 9 97
-178.61674725971002 -11.707160132195574 770.0 110 24 110
-180.61246510618722 -11.83796639065586 593.0 133 32 106
-187.59747756885744 -12.29578829526686 843.0 104 22 110
-193.58463110828907 -12.688207070647715 649.0 64 9 102
-209.55037388010672 -13.734657138330002 795.0 199 62 76
-219.52896311249276 -14.388688430631431 815.0 224 86 52
-220.52682203573136 -14.454091559861574 827.0 193 58 80
-247.46901296317367 -16.21997604907543 932.0 57 9 98
-277.40478066033177 -18.182069925979718 914.0 69 10 105
-311.3319840504443 -20.405776319804573 858.0 70 10 105
-331.28916251521633 -21.71383890440743 847.0 99 20 110
-365.21636590532887 -23.93754529823229 829.0 235 101 39
-365.21636590532887 -23.93754529823229 870.0 247 207 58
-409.1221585278274 -26.815282984358575 807.0 93 18 110
-415.10931206725905 -27.207701759739432 844.0 109 24 110
-433.0707726855539 -28.384958085882005 793.0 82 14 108
-445.04507976441715 -29.16979563664372 827.0 101 21 110
-92.77345667416365 -6.4873520582036095 472.0 125 29 108
-108.73448147832084 -7.603455638109606 482.0 118 27 109
-142.65165918715488 -9.975175745409851 512.0 95 18 110
-148.63704348871383 -10.3937145878746 524.0 109 24 110
-160.6078120918317 -11.230792272804099 503.0 60 9 101
-166.59319639339066 -11.649331115268847 767.0 75 12 107
-167.59076044365048 -11.719087589012972 851.0 72 11 106
-175.57127284572908 -12.27713937896597 558.0 102 21 110
-179.56152904676838 -12.556165273942469 591.0 137 34 105
-180.5590930970282 -12.625921747686593 770.0 91 17 110
-192.52986170014609 -13.462999432616092 843.0 99 20 110
-199.51281005196486 -13.951294748824965 641.0 69 10 105
-210.48601460482294 -14.71861596001034 796.0 187 55 84
-220.46165510742117 -15.416180697451587 827.0 201 63 74
-277.32280597223115 -19.392299700866705 914.0 69 10 105
-364.1108783448359 -25.461112916605565 870.0 241 232 100
-365.1084423950957 -25.53086939034969 829.0 236 103 38
-410.99638870704763 -28.73966718257943 806.0 83 14 109
-445.91113046614146 -31.181143763623798 826.0 109 24 110
-446.9086945164013 -31.250900237367922 786.0 87 15 109
-80.77726499305834 -6.0027877058273145 471.0 90 17 109
-93.74151739935165 -6.966198078367501 472.0 114 25 109
-112.68927091624188 -8.37425939208008 482.0 123 29 108
-134.62877498843056 -10.004646176378857 499.0 77 12 107
-148.59027757982338 -11.042165039114442 523.0 118 27 109
-151.58202813512182 -11.26449050970064 760.0 59 9 100
-168.5352812818131 -12.524334843022421 766.0 74 11 106
-171.52703183711154 -12.746660313608619 557.0 112 25 110
-180.5022835030069 -13.413636725367208 593.0 104 22 110
-181.4995336881064 -13.487745215562608 770.0 82 14 108
-191.47203553910126 -14.228830117516598 843.0 123 29 108
-197.45553664969816 -14.673481058688992 643.0 59 9 100
-209.422538870892 -15.56278294103378 644.0 64 9 102
-213.41153961128995 -15.859216901815374 798.0 174 48 91
-220.39229090698635 -16.377976333183167 820.0 236 103 38
-247.31804590467246 -18.37890556845894 932.0 59 9 100
-277.23555145765704 -20.60216027432091 914.0 74 11 106
-299.17505552984574 -22.232547058619684 903.0 110 24 110
-364.99356774641177 -27.123707411516015 829.0 237 104 37
-364.99356774641177 -27.123707411516015 870.0 247 209 60
-403.8863249652917 -30.013938529136574 809.0 80 13 108
-411.8643264460876 -30.606806450699764 844.0 93 18 110
-426.8230792225799 -31.71843380363075 798.0 88 16 109
-445.7708327394701 -33.12649511734333 826.0 112 25 110
-94.70714670464717 -7.453614094145216 472.0 83 14 109
-106.6701547094447 -8.395123242879349 481.0 120 28 109
-134.5838400539723 -10.591977923258991 499.0 74 11 106
-152.5283520611686 -12.004241646360189 522.0 115 26 109
-154.52218672863486 -12.161159837815879 760.0 60 9 101
-170.4728640683649 -13.416505369461388 549.0 133 32 106
-170.4728640683649 -13.416505369461388 766.0 70 10 105
-176.45436807076368 -13.887259943828454 588.0 102 21 110
-186.42354140809496 -14.671850901106898 845.0 109 24 110
-210.34955741769002 -16.55486919857516 630.0 74 11 106
-217.32797875382192 -17.104082868670073 800.0 181 51 87
-221.31564808875444 -17.417919251581452 822.0 230 92 46
-247.23549876581575 -19.457855740505405 932.0 59 9 100
-277.14301877780963 -21.811628612340737 914.0 70 10 105
-315.0258774596685 -24.793074249998824 895.0 112 25 110
-362.8779094788586 -28.559110844935354 830.0 203 64 73
-364.8717441463249 -28.716029036391042 870.0 247 207 58
-416.71144550044755 -32.79590201423895 844.0 91 17 110
-418.70528016791377 -32.952820205694636 802.0 79 13 108
-431.66520550644447 -33.972788450156614 794.0 77 12 107
-94.67372273728733 -7.866779713659375 472.0 90 17 109
-109.62220527475375 -9.108902826342435 480.0 118 27 109
-130.55008082720676 -10.847875184098719 502.0 72 11 106
-144.50199786217541 -12.007190089269573 512.0 117 27 109
-156.46078389214856 -13.00088857941602 760.0 64 9 102
-165.4298734146284 -13.746162447025856 548.0 125 29 108
-169.41613542461945 -14.077395277074672 767.0 88 16 109
-169.41613542461945 -14.077395277074672 851.0 91 17 110
-181.3749214545926 -15.07109376722112 771.0 90 17 109
-184.36461796208587 -15.319518389757732 847.0 109 24 110
-185.36118346458363 -15.402326597269935 595.0 118 27 109
-197.31996949455677 -16.396025087416383 754.0 59 9 100
-212.2684520320232 -17.638148200099444 632.0 102 21 110
-217.251279544512 -18.05218923766046 800.0 223 84 54
-220.24097605200527 -18.300613860197075 822.0 169 46 94
-276.04864419187993 -22.937873480880494 914.0 64 9 102
-314.91469878929263 -26.16739357385645 895.0 110 24 110
-338.8322708492389 -28.154790554149344 843.0 102 21 110
-363.7464084116829 -30.224995741954444 870.0 241 232 100
-364.7429739141807 -30.30780394946665 829.0 235 101 39
-405.6021595165889 -33.70294045746701 808.0 90 17 109
-411.5815525315755 -34.19978970254024 844.0 93 18 110
-426.5300350690419 -35.44191281522329 798.0 82 14 108
-445.46477961649936 -37.01526875795517 826.0 107 23 110
-446.46134511899714 -37.09807696546737 786.0 88 16 109
-87.6651334320736 -7.669705361793899 469.0 93 18 110
-109.581416790092 -9.587131702242374 480.0 109 24 110
-130.50150545001867 -11.417402299943191 502.0 88 16 109
-147.43681531757835 -12.899049926653376 521.0 115 26 109
-154.41017820422056 -13.509140125886981 746.0 70 10 105
-156.40256760040404 -13.683451611382297 761.0 75 12 107
-165.36831988322976 -14.467853296111219 548.0 136 33 106
-171.34548807178024 -14.990787752597166 766.0 70 10 105
-178.31885095842244 -15.600877951830771 849.0 102 21 110
-183.29982444888117 -16.036656665569062 769.0 88 16 109
-190.2731873355234 -16.64674686480267 663.0 57 9 98
-191.26938203361516 -16.733902607550327 604.0 90 17 109
-192.2655767317069 -16.82105835029798 755.0 69 10 105
-201.2313290145326 -17.605460035026905 778.0 80 13 108
-208.2046919011748 -18.215550234260512 633.0 110 24 110
-218.1666388820923 -19.08710766173709 801.0 219 79 58
-220.15902827827577 -19.261419147232406 828.0 155 40 100
-240.0829222401107 -21.004534002185565 932.0 55 9 97
-312.8051352008081 -27.366903222764595 896.0 110 24 110
-321.7708874836338 -28.151304907493515 852.0 88 16 109
-364.6072595015789 -31.899001845642807 829.0 234 100 40
-364.6072595015789 -31.899001845642807 870.0 247 209 60
-410.43221561379914 -35.908166012035075 806.0 88 16 109
-424.3789413870836 -37.12834641050228 840.0 90 17 109
-429.35991487754234 -37.564125124240576 645.0 64 9 102
-445.29903004701026 -38.9586170082031 826.0 107 23 110
-86.63502869899557 -7.9606408237159645 469.0 88 16 109
-105.55532232291415 -9.699171578320602 479.0 88 16 109
-121.48820116410873 -11.163197476935032 487.0 107 23 110
-151.3623489913486 -13.908246036837088 520.0 123 29 108
-153.3539588464979 -14.091249274163893 746.0 74 11 106
-153.3539588464979 -14.091249274163893 761.0 77 12 107
-168.29103276011784 -15.46377355411492 550.0 117 27 109
-168.29103276011784 -15.46377355411492 852.0 91 17 110
-169.2868376876925 -15.555275172778323 767.0 70 10 105
-181.23649681858845 -16.653294596739144 771.0 70 10 105
-181.23649681858845 -16.653294596739144 847.0 95 18 110
-184.22391160131244 -16.92779945272935 595.0 87 15 109
-193.18615594948437 -17.75131402069997 754.0 60 9 101
-199.16098551493235 -18.30032373268038 778.0 122 28 109
-201.15259537008168 -18.483326970007184 838.0 104 22 110
-216.0896692837016 -19.85585124995821 639.0 115 26 109
-217.08547421127628 -19.947352868621614 829.0 144 36 104
-221.06869392157492 -20.31335934327522 802.0 150 38 102
-274.8421600106067 -25.254446751098925 915.0 69 10 105
-321.64499160661575 -29.555022828278812 893.0 125 29 108
-364.4646034923262 -33.4895924308051 829.0 231 95 44
-364.4646034923262 -33.4895924308051 870.0 247 209 60
-410.27163016076065 -37.69866688932158 806.0 87 15 109
-416.2464597262086 -38.24767660130199 844.0 91 17 110
-429.1919237846792 -39.43719764392622 645.0 60 9 101
-86.59946925794456 -8.338580469259458 468.0 77 12 107
-105.51199702692095 -10.159649767143708 480.0 87 15 109
-121.43833620079582 -11.693181807467287 487.0 101 21 110
-151.3002221518112 -14.568554383073996 519.0 112 25 110
-154.28641074691274 -14.856091640634668 750.0 74 11 106
-154.28641074691274 -14.856091640634668 762.0 79 13 108
-158.26799554038143 -15.239474650715563 532.0 96 19 110
-168.22195752405324 -16.1979321759178 546.0 98 20 110
-180.16671190445936 -17.348081206160483 771.0 79 13 108
-184.1482966979281 -17.731464216241378 595.0 82 14 108
-187.13448529302963 -18.01900147380205 846.0 109 24 110
-194.10225868159986 -18.689921741443616 754.0 59 9 100
-208.0378054587404 -20.031762276726745 613.0 109 24 110
-208.0378054587404 -20.031762276726745 787.0 152 39 101
-213.01478645057628 -20.510991039327862 641.0 115 26 109
-217.99176744241217 -20.990219801928983 826.0 177 49 90
-218.98716364077936 -21.086065554449206 804.0 197 61 77
-246.85825719506036 -23.76974662501547 932.0 55 9 97
-274.72935074934134 -26.45342769558173 915.0 69 10 105
-310.5636138905598 -29.903874786309782 858.0 70 10 105
-321.51297207259876 -30.958178064032243 893.0 123 29 108
-364.3150086023875 -35.07954542240186 829.0 230 94 45
-364.3150086023875 -35.07954542240186 870.0 248 205 55
-410.1032337272777 -39.48845003833215 806.0 87 15 109
-429.0157614962541 -41.3095193362164 645.0 60 9 101
-80.59244997832384 -8.115232990578203 469.0 74 11 106
-105.46666293459664 -10.619934530880117 479.0 96 19 110
-121.38615922661123 -12.222943516673343 487.0 102 21 110
-150.24024625588766 -15.128397303423563 518.0 123 29 108
-155.21508884714223 -15.629337611483946 751.0 74 11 106
-171.13458513915683 -17.23234659727717 554.0 118 27 109
-182.07923883991685 -18.334415275010013 770.0 93 18 110
-183.07420735816774 -18.43460333662209 848.0 115 26 109
-190.03898698592414 -19.135919767906625 757.0 64 9 102
-196.0087980954296 -19.737048137579087 603.0 117 27 109
-209.93835735094237 -21.13968100014816 789.0 175 49 91
-213.91823142394603 -21.540433246596464 627.0 83 14 109
-213.91823142394603 -21.540433246596464 646.0 90 17 109
-219.88804253345148 -22.141561616268923 805.0 178 50 89
-222.87294808820423 -22.442125801105153 825.0 197 61 77
-274.61131103725165 -27.651905004933134 915.0 69 10 105
-307.4452721395317 -30.958111038131662 858.0 64 9 102
-321.37483139504445 -32.36074390070073 852.0 88 16 109
-321.37483139504445 -32.36074390070073 893.0 123 29 108
-364.1584776798337 -36.668830550020026 829.0 230 92 46
-364.1584776798337 -36.668830550020026 870.0 248 205 55
-409.9270295193756 -41.27748138417555 806.0 83 14 109
-428.83143136614297 -43.18105455480501 645.0 69 10 105
-446.74086469465936 -44.984439663822386 826.0 99 20 110
-109.39740849051006 -11.498130959441886 479.0 101 21 110
-121.33167123492935 -12.752472518653727 487.0 102 21 110
-150.17280620060927 -15.783797953415679 518.0 110 24 110
-167.07967842186991 -17.560781828965787 545.0 102 21 110
-174.04133168944782 -18.29248107183936 584.0 67 10 104
-180.00846306165747 -18.919651851445284 771.0 83 14 109
-182.99202874776228 -19.233237241248244 848.0 115 26 109
-186.97011632923537 -19.65135109431886 593.0 102 21 110
-204.8715104458643 -21.532863433136622 784.0 155 40 100
-208.84959802733738 -21.950977286207234 611.0 98 20 110
-215.8112512949153 -22.68267652908081 627.0 93 18 110
-217.80029508565184 -22.891733455616116 806.0 114 25 109
-217.80029508565184 -22.891733455616116 824.0 164 44 96
-274.48804312164344 -28.849855861872367 915.0 70 10 105
-307.30726566879645 -32.29929514970493 858.0 62 9 102
-310.2908313549013 -32.61288053950789 897.0 110 24 110
-321.23057220395225 -33.76269363545208 852.0 90 17 109
-363.00049180941977 -38.15288909269353 830.0 191 57 81
-363.99501370478805 -38.25741755596118 870.0 248 205 55
-404.77041141488723 -42.543084549934974 808.0 77 12 107
-427.6444150083575 -44.947239205091 645.0 55 9 97
-432.6170244851989 -45.46988152142927 833.0 88 16 109
-80.51856339600789 -8.818216863009146 469.0 69 10 105
-109.34619720445517 -11.975356233716123 479.0 112 25 110
-121.274873263123 -13.281758731939702 487.0 101 21 110
-149.10845073334795 -16.330031227794716 518.0 115 26 109
-165.01335214490507 -18.07190122542615 547.0 120 28 109
-168.98957749779433 -18.50736872483401 853.0 107 23 110
-173.95985918890594 -19.051703099093835 583.0 77 12 107
-178.93014088001755 -19.596037473353658 771.0 95 18 110
-186.8825915857961 -20.466972472169378 593.0 102 21 110
-194.83504229157464 -21.337907470985094 755.0 60 9 101
-204.77560567379786 -22.426576219504742 783.0 145 37 103
-207.7577746884648 -22.753176844060636 609.0 96 19 110
-217.698338070688 -23.841845592580285 807.0 87 15 109
-217.698338070688 -23.841845592580285 824.0 161 43 97
-219.68645074713265 -24.059579342284213 626.0 139 34 105
-221.67456342357727 -24.27731309198814 644.0 74 11 106
-273.3654930111379 -29.93839058429031 915.0 72 11 106
-321.08019724580925 -35.164000577184616 893.0 125 29 108
-323.0683099222539 -35.38173432688855 851.0 88 16 109
-362.83056345114665 -39.73640932096714 830.0 191 57 81
-363.82461978936897 -39.8452761958191 870.0 248 205 55
-415.5155493769296 -45.50635368812127 843.0 96 19 110
-423.46800008270816 -46.37728868693699 799.0 75 12 107
-81.47289216548018 -9.282663528968381 469.0 70 10 105
-93.39575443359922 -10.641102094183266 474.0 88 16 109
-106.31218855739486 -12.112743873166059 479.0 114 25 109
-124.19648195957343 -14.150401720988386 487.0 99 20 110
-147.04863464013494 -16.75407563765025 517.0 101 21 110
-163.93935618663693 -18.67853027170467 547.0 118 27 109
-170.89435917637303 -19.470952768080018 852.0 104 22 110
-179.83650587746234 -20.489781691991183 770.0 98 20 110
-186.79150886719844 -21.28220418836653 593.0 83 14 109
-202.68865855802383 -23.093455608653045 608.0 90 17 109
-205.6693741250536 -23.433065249956766 782.0 171 46 93
-218.58580824884925 -24.90470702893956 823.0 145 37 103
-219.57938010452582 -25.017910242707465 626.0 142 36 104
-222.5600956715556 -25.357519884011186 644.0 74 11 106
-224.54723938290877 -25.583926311547 804.0 99 20 110
-273.23226031106157 -31.130883786174447 915.0 69 10 105
-320.92370938353776 -36.56463804703399 893.0 123 29 108
-361.66015546627784 -41.20596981151818 871.0 241 235 108
-362.6537273219544 -41.319173025286084 830.0 190 56 82
-406.37088897172424 -46.30011443107399 807.0 83 14 109
-423.26161051822623 -48.224569065128414 799.0 75 12 107
-432.20375721931555 -49.24339798903958 833.0 88 16 109
-80.43854501334903 -9.520529194084856 468.0 74 11 106
-97.32070878158278 -11.518664950868098 474.0 99 20 110
-110.23059872199681 -13.046651117819989 479.0 110 24 110
-131.08503631805027 -15.514936464434582 501.0 75 12 107
-143.99492625846432 -17.04292263138647 514.0 110 24 110
-155.91174774192342 -18.453371400880524 753.0 70 10 105
-172.7939115101572 -20.451507157663766 852.0 122 28 109
-174.78004842406702 -20.68658195257944 553.0 118 27 109
-176.76618533797688 -20.921656747495117 570.0 88 16 109
-177.7592537949318 -21.039194144952955 771.0 87 15 109
-186.69686990752615 -22.097030722073495 593.0 82 14 108
-201.59289676185003 -23.86009168394106 608.0 59 9 100
-205.56517058966975 -24.330241273772412 782.0 164 44 96
-219.4681289870387 -25.97576483818214 626.0 131 32 107
-219.4681289870387 -25.97576483818214 655.0 77 12 107
-220.46119744399363 -26.093302235639978 805.0 200 62 75
-220.46119744399363 -26.093302235639978 822.0 149 38 102
-273.09382566260473 -32.322784300905376 915.0 69 10 105
-320.7611115964412 -37.96457937888159 893.0 123 29 108
-361.4769183315932 -42.783612674652936 871.0 241 235 108
-362.4699867885481 -42.901150072110774 830.0 189 55 83
-406.16499889456486 -48.072795560255635 807.0 80 13 108
-411.1303411793395 -48.660482547544824 845.0 102 21 110
-431.98477877539295 -51.12876789415942 833.0 87 15 109
-109.18007668054541 -13.405627774566252 480.0 122 28 109
-137.96391507814374 -16.939838733315536 510.0 102 21 110
-149.87446889783962 -18.40227085417731 516.0 101 21 110
-155.82974580768754 -19.133486914608195 753.0 67 10 104
-172.70303038559 -21.205265752495706 554.0 110 24 110
-174.68812268887268 -21.449004439306 853.0 101 21 110
-175.680668840514 -21.57087378271115 581.0 74 11 106
-177.66576114379663 -21.814612469521446 568.0 109 24 110
-178.65830729543796 -21.936481812926594 770.0 129 31 107
-186.59867650856853 -22.911436560167775 593.0 75 12 107
-186.59867650856853 -22.911436560167775 847.0 96 19 110
-205.45705338975364 -25.226954084865582 781.0 134 33 106
-215.38251490616688 -26.44564751891706 657.0 90 17 109
-220.3452456643735 -27.054994235942797 806.0 207 68 70
-220.3452456643735 -27.054994235942797 822.0 163 43 97
-222.33033796765613 -27.298732922753093 624.0 107 23 110
-226.30052257422142 -27.786210296373685 643.0 91 17 110
-272.95019170136356 -33.51406943641563 915.0 64 9 102
-319.59986082850565 -39.241928576457575 852.0 83 14 109
-361.2867991974412 -44.36044099947378 830.0 187 55 84
-361.2867991974412 -44.36044099947378 871.0 241 233 104
-414.88429138607256 -50.94138554335176 802.0 62 9 102
-431.75757596397506 -53.013164381239264 833.0 87 15 109
-80.35240092405691 -10.22211650000221 468.0 67 10 104
-111.10455436412808 -14.134284543212933 480.0 117 27 109
-138.8806929551601 -17.667855679016167 509.0 102 21 110
-159.7127968984341 -20.318034030868592 758.0 87 15 109
-168.64084144555156 -21.45382475309106 544.0 110 24 110
-174.59287114362985 -22.211018567906038 852.0 117 27 109
-179.5528958920284 -22.842013413585185 566.0 83 14 109
-180.5449008417081 -22.968212382721017 769.0 91 17 110
-189.47294538882556 -24.104003104943484 591.0 91 17 110
-190.46495033850528 -24.230202074079315 845.0 107 23 110
-203.36101468434157 -25.8707886728451 783.0 136 33 106
-212.289059231459 -27.00657939506757 603.0 57 9 98
-218.24108892953728 -27.763773209882547 802.0 217 77 61
-219.23309387921702 -27.889972179018375 655.0 104 22 110
-220.22509882889673 -28.016171148154207 821.0 155 40 100
-221.21710377857644 -28.142370117290035 624.0 101 21 110
-227.16913347665474 -28.899563932105014 643.0 69 10 105
-273.79336611160136 -34.830915481489015 915.0 67 10 104
-307.52153440071163 -39.121680432107226 898.0 109 24 110
-362.081806633096 -46.06262373457786 830.0 187 55 84
-362.081806633096 -46.06262373457786 870.0 243 224 86
-407.71403431836285 -51.86777631482603 806.0 82 14 108
-410.690049167402 -52.24637322223352 845.0 98 20 110
-422.59410856355856 -53.76076085186348 799.0 74 11 106
-431.522153110676 -54.89655157408595 833.0 83 14 109
-445.410222406192 -56.66333714198756 786.0 91 17 110
-79.31558890990483 -10.442095377604142 468.0 75 12 107
-99.14448613738104 -13.052619222005177 474.0 107 23 110
-112.03326933524058 -14.74945972086585 480.0 112 25 110
-145.74239462195013 -19.18735025634761 512.0 107 23 110
-174.49429560179064 -22.972609830729112 582.0 57 9 98
-175.48574046316443 -23.103136022949162 553.0 115 26 109
-177.46863018591205 -23.364188407389268 770.0 93 18 110
-177.46863018591205 -23.364188407389268 850.0 102 21 110
-189.3659685223978 -24.93050271402989 591.0 74 11 106
-191.3488582451454 -25.19155509846999 776.0 117 27 109
-195.31463769064064 -25.7136598673502 529.0 55 9 97
-195.31463769064064 -25.7136598673502 674.0 75 12 107
-203.24619658163112 -26.75786940511061 782.0 153 40 100
-207.21197602712638 -27.27997417399082 663.0 87 15 109
-216.13497977949066 -28.454709903971285 603.0 74 11 106
-218.11786950223828 -28.71576228841139 822.0 156 41 99
-220.1007592249859 -28.976814672851493 801.0 174 48 91
-222.08364894773354 -29.237867057291595 624.0 102 21 110
-223.07509380910733 -29.368393249511648 654.0 95 18 110
-273.6387817391717 -36.02522905273429 915.0 64 9 102
-307.3479070258812 -40.463119588216045 898.0 109 24 110
-322.21957994648835 -42.421012471516825 851.0 83 14 109
-360.88592954006697 -47.511533968098846 830.0 189 55 83
-362.8688192628146 -47.772586352538944 870.0 249 199 47
-407.48383802463604 -53.646265002441275 806.0 83 14 109
-410.4581726087575 -54.037843579101434 845.0 99 20 110
-432.2699595589813 -56.90941980794257 832.0 88 16 109
-108.99524871255704 -14.833602330109521 480.0 110 24 110
-148.62988460803234 -20.227639541058437 517.0 91 17 110
-171.41980024793062 -23.329210937354063 852.0 91 17 110
-174.39239794009129 -23.733763728175234 554.0 110 24 110
-177.36499563225192 -24.1383165189964 770.0 93 18 110
-185.29192281134698 -25.217123961186186 684.0 69 10 105
-186.28278870873388 -25.351974891459907 847.0 90 17 109
-189.2553864008945 -25.756527682281078 591.0 67 10 104
-192.22798409305514 -26.161080473102245 775.0 139 34 105
-204.11837486169773 -27.77929163638692 782.0 153 40 100
-207.0909725538584 -28.18384442720809 664.0 90 17 109
-216.00876563034032 -29.397502799671596 604.0 99 20 110
-216.00876563034032 -29.397502799671596 800.0 163 43 97
-219.97222921988785 -29.936906520766488 821.0 161 43 97
-220.96309511727475 -30.07175745104021 655.0 109 24 110
-225.91742460420915 -30.746012102408823 632.0 144 36 104
-275.46071947355324 -37.48855861609497 914.0 60 9 101
-307.1684281899335 -41.8037883848541 898.0 107 23 110
-322.03141665073673 -43.82655233895995 851.0 83 14 109
-361.66605254621203 -49.220589549908865 870.0 244 219 75
-362.6569184435989 -49.35544048018259 829.0 215 75 62
-405.26415203123486 -55.154030481952674 807.0 69 10 105
-431.0266653632938 -58.66015466906947 833.0 87 15 109
-438.95359254238883 -59.73896211125925 789.0 79 13 108
-85.16305391177504 -11.968886682565635 467.0 62 9 102
-112.89055983653901 -15.86573350944747 480.0 104 22 110
-137.64726155507827 -19.345061033449106 509.0 98 20 110
-139.62779769256142 -19.62340723536924 494.0 57 9 98
-151.51101451746024 -21.293484446890023 516.0 99 20 110
-168.34557168606693 -23.659427163211138 544.0 112 25 110
-174.28718009851636 -24.49446576897153 853.0 93 18 110
-177.2579843047411 -24.911985071851728 564.0 101 21 110
-178.24825237348264 -25.051158172811792 770.0 95 18 110
-185.18012885467363 -26.025369879532253 685.0 57 9 98
-185.18012885467363 -26.025369879532253 845.0 93 18 110
-191.12173726712305 -26.860408485292645 589.0 87 15 109
-191.12173726712305 -26.860408485292645 776.0 125 29 108
-204.98549022950505 -28.808831898733562 781.0 141 35 105
-207.95629443572975 -29.22635120161376 605.0 112 25 110
-217.85897512314546 -30.618082211214414 799.0 201 63 74
-217.85897512314546 -30.618082211214414 822.0 161 43 97
-219.8395112606286 -30.896428413134547 656.0 104 22 110
-228.75192387930272 -32.14898632177513 630.0 144 36 104
-269.3529146977071 -37.85508346113782 917.0 57 9 98
-322.8273904097519 -45.37043091298136 850.0 82 14 108
-360.45757702193157 -50.65900874946385 830.0 191 57 81
-362.4381131594147 -50.93735495138398 870.0 248 201 49
-407.00017625278537 -57.20014449458693 806.0 80 13 108
-417.89312500894266 -58.73104860514765 801.0 79 13 108
-431.7568779713246 -60.67947201858857 832.0 83 14 109
-79.1721109455736 -11.479409759294363 468.0 75 12 107
-97.97548729514735 -14.205769577126775 475.0 101 21 110
-113.80990948426206 -16.501651528985647 480.0 107 23 110
-144.48910247567184 -20.949922810712213 512.0 110 24 110
-154.38561634386855 -22.384849030624007 523.0 99 20 110
-174.17864408026193 -25.2547014704476 853.0 95 18 110
-175.1682954670816 -25.39819409243878 771.0 95 18 110
-176.15794685390128 -25.541686714429957 553.0 114 25 109
-188.03376349573733 -27.263598178324113 845.0 115 26 109
-189.023414882557 -27.40709080031529 588.0 67 10 104
-192.98202042983567 -27.98106128828001 775.0 131 32 107
-207.82679123213072 -30.133450618147705 604.0 110 24 110
-216.73365371350775 -31.42488421606832 797.0 210 71 66
-217.72330510032742 -31.5683768380595 821.0 178 50 89
-219.70260787396677 -31.855362082041857 809.0 150 38 102
-220.69225926078644 -31.99885470403304 656.0 104 22 110
-228.6094703553438 -33.14679567996247 630.0 155 40 100
-318.6677465559338 -46.20462428115981 894.0 123 29 108
-322.62635210321247 -46.77859476912453 850.0 88 16 109
-361.2227561891796 -52.37480702678053 870.0 242 228 93
-362.2124075759993 -52.51829964877171 829.0 223 84 54
-404.7674172092451 -58.68848239439243 807.0 69 10 105
-431.48800465337615 -62.56278318815428 832.0 87 15 109
-79.12126906895335 -11.824752890368849 467.0 72 11 106
-122.63796705687768 -18.328366980071713 486.0 110 24 110
-155.27549054782094 -23.206077547348865 522.0 93 18 110
-164.1766333180782 -24.53636224751536 856.0 87 15 109
-169.12171263488779 -25.275409303163414 543.0 112 25 110
-179.01187126850695 -26.75350341445952 769.0 109 24 110
-187.9130140387642 -28.083788114626014 845.0 117 27 109
-188.90202990212612 -28.231597525755625 588.0 82 14 108
-194.83612508229763 -29.11845399253329 774.0 129 31 107
-207.69333130600253 -31.039976337218228 668.0 60 9 101
-215.60545821289787 -32.22245162625511 795.0 174 48 91
-217.5834899396217 -32.51807044851433 821.0 169 46 94
-219.56152166634553 -32.81368927077355 606.0 101 21 110
-224.50660098315512 -33.55273632642161 655.0 110 24 110
-229.4516802999647 -34.29178338206966 629.0 150 38 102
-322.4191714559849 -48.185868028253054 850.0 88 16 109
-360.9907901270996 -53.95043506230787 870.0 242 228 93
-361.97980599046156 -54.09824447343748 829.0 224 86 52
-409.4525674318336 -61.19309620765879 804.0 64 9 102
-413.40863088528124 -61.784333852177234 844.0 91 17 110
-423.2987895189004 -63.262427963473336 798.0 72 11 106
-430.2219005624338 -64.29709384138062 833.0 88 16 109
-84.01072838975966 -12.930487826142931 467.0 64 9 102
-122.55682729800232 -18.863299887549687 486.0 110 24 110
-143.3124190178253 -22.05789099753794 494.0 67 10 104
-149.24258808063186 -22.97063131467744 862.0 70 10 105
-153.1960341225029 -23.57912485943711 521.0 99 20 110
-169.00981828998707 -26.01309903847578 543.0 114 25 109
-170.9865413109226 -26.317345810855613 715.0 55 9 97
-175.9283488632614 -27.077962741805194 770.0 91 17 110
-186.80032547840676 -28.75131998989428 587.0 75 12 107
-201.62574813542318 -31.033170782743035 782.0 136 33 106
-212.49772475056855 -32.70652803083212 832.0 164 44 96
-216.4511707924396 -33.315021575591786 795.0 141 35 105
-218.4278938133751 -33.61926834797162 820.0 164 44 96
-221.39297834477838 -34.07563850654137 606.0 101 21 110
-222.38133985524615 -34.22776189273129 656.0 109 24 110
-229.29987042852048 -35.2926255960607 629.0 112 25 110
-322.20585241249 -49.59222389791289 850.0 88 16 109
-361.7403128312004 -55.67715934550956 829.0 224 86 52
-361.7403128312004 -55.67715934550956 870.0 248 203 52
-404.23985778131413 -62.21846495167598 807.0 69 10 105
-429.9372570534759 -66.17367299261382 833.0 87 15 109
-439.8208721581535 -67.694906854513 788.0 79 13 108
-84.94119729118185 -13.453363993459842 466.0 67 10 104
-99.75652240010892 -15.799880969063304 475.0 62 9 102
-122.47335423379708 -19.39787366498861 486.0 112 25 110
-142.22712104569985 -22.526562965793225 512.0 107 23 110
-153.09169279224636 -24.247342081235765 862.0 70 10 105
-154.0793811328415 -24.403776546275992 521.0 118 27 109
-168.89470624176855 -26.750293521879456 543.0 117 27 109
-175.80852462593452 -27.84533477716107 770.0 93 18 110
-181.73465466950535 -28.783941567402454 578.0 79 13 108
-195.56229143783727 -30.974024077965684 591.0 77 12 107
-202.47610982200325 -32.0690653332473 684.0 70 10 105
-202.47610982200325 -32.0690653332473 781.0 153 40 100
-215.31605824974002 -34.1027133787703 795.0 175 49 91
-216.30374659033518 -34.25914784381053 821.0 163 43 97
-222.229876633906 -35.19775463405191 607.0 109 24 110
-223.21756497450113 -35.354189099092146 656.0 112 25 110
-229.14369501807195 -36.29279588933353 621.0 133 32 106
-230.1313833586671 -36.44923035437376 641.0 93 18 110
-321.98639903401494 -50.99763560311522 850.0 88 16 109
-359.5185559766301 -56.942145274643984 871.0 241 235 108
-361.49393265782044 -57.255014204724446 829.0 228 90 49
-411.86603802817245 -65.23317192177622 803.0 60 9 101
-429.6444281588849 -68.04899229250037 833.0 83 14 109
-78.95970932481856 -12.859405248306091 467.0 70 10 105
-98.69963665602319 -16.07425656038261 475.0 79 13 108
-125.34853855314945 -20.41430583168592 486.0 104 22 110
-138.17949131843247 -22.50395918453566 507.0 107 23 110
-151.0104440837155 -24.593612537385397 862.0 64 9 102
-162.85440048243828 -26.52252332463131 534.0 123 29 108
-173.7113605146008 -28.2906915462734 555.0 88 16 109
-177.65934598084175 -28.933661808688704 769.0 77 12 107
-180.62033508052244 -29.415889505500182 578.0 80 13 108
-197.39927331204638 -32.14851312076522 592.0 64 9 102
-199.37326604516684 -32.46999825197288 686.0 88 16 109
-202.33425514484753 -32.95222594878436 781.0 155 40 100
-211.21722244388963 -34.39890903921879 600.0 95 18 110
-215.16520791013056 -35.0418793016341 795.0 149 38 102
-217.13920064325103 -35.36336443284175 828.0 189 55 83
-223.0611788426124 -36.327819826464705 609.0 114 25 109
-223.0611788426124 -36.327819826464705 656.0 91 17 110
-227.99616067541356 -37.131532654483834 629.0 120 28 109
-319.7868227655151 -52.08059125563967 851.0 80 13 108
-361.2406701610449 -58.831779011000364 829.0 224 86 52
-361.2406701610449 -58.831779011000364 870.0 247 207 58
-411.5774848556167 -67.0296498567955 803.0 62 9 102
-429.3434194537009 -69.92301603766437 833.0 88 16 109
-78.90284812297851 -13.203808468854195 467.0 74 11 106
-99.61484575526038 -16.66980819192842 475.0 75 12 107
-113.42284417678161 -18.980474673977906 482.0 104 22 110
-131.17598500445177 -21.9513315794701 499.0 104 22 110
-144.983983425973 -24.261998061519584 510.0 88 16 109
-150.9016970351964 -25.252283696683648 862.0 64 9 102
-165.6959810582549 -27.727997784593807 538.0 129 31 107
-176.54512267516444 -29.54352144906126 555.0 102 21 110
-176.54512267516444 -29.54352144906126 770.0 83 14 109
-178.5176938782389 -29.873616660782616 580.0 96 19 110
-201.20226271359522 -33.6697115955782 686.0 74 11 106
-202.18854831513244 -33.83475920143887 781.0 158 41 99
-215.01026113511645 -35.98037807762768 794.0 150 38 102
-215.01026113511645 -35.98037807762768 830.0 199 62 76
-217.96911793972814 -36.47552089520971 609.0 122 28 109
-222.90054594741432 -37.3007589245131 670.0 69 10 105
-226.84568835356322 -37.96094934795581 657.0 91 17 110
-229.80454515817493 -38.45609216553784 621.0 123 29 108
-256.4342563996802 -42.91237752377613 923.0 55 9 97
-303.7759652734673 -50.834662605088646 899.0 114 25 109
-318.57024929652573 -53.31037669299881 893.0 122 28 109
-323.5016773042119 -54.1356147223022 849.0 87 15 109
-360.9805301626267 -60.40742374500794 829.0 226 87 51
-360.9805301626267 -60.40742374500794 870.0 247 207 58
-412.26738144256274 -68.98989924976317 802.0 64 9 102
-429.03423666869566 -71.79570854939469 833.0 83 14 109
-83.77226501993661 -14.394707827167087 466.0 64 9 102
-100.52671802392393 -17.273649392600504 474.0 83 14 109
-126.15117555943395 -21.676736492675143 486.0 95 18 110
-140.93451644530512 -24.21697905041051 494.0 98 20 110
-142.90562856342126 -24.555678058108562 510.0 90 17 109
-150.7900770358859 -25.910474088900756 862.0 67 10 104
-167.54453003987322 -28.789415654334174 542.0 102 21 110
-174.44342245327977 -29.974862181277345 557.0 93 18 110
-178.38564668951207 -30.652260196673446 580.0 88 16 109
-178.38564668951207 -30.652260196673446 768.0 95 18 110
-195.1400996934994 -33.53120176210686 776.0 141 35 105
-201.05343604784787 -34.54729878520101 528.0 60 9 101
-209.92344057937055 -36.07144431984223 673.0 74 11 106
-211.89455269748672 -36.41014332754028 598.0 101 21 110
-213.86566481560288 -36.74884233523833 795.0 178 50 89
-218.79344511089326 -37.59558985448345 827.0 196 60 78
-221.7501132880675 -38.10363836603052 658.0 95 18 110
-229.6345617605321 -39.458434396822724 629.0 134 33 106
-262.1579117094487 -45.046968023840535 923.0 55 9 97
-303.55126618988794 -52.159647185499566 899.0 114 25 109
-312.4212707214106 -53.68379272014079 854.0 67 10 104
-360.7135176152565 -61.981918408742985 829.0 227 88 50
-360.7135176152565 -61.981918408742985 870.0 247 209 60
-409.0057645091023 -70.2800440973452 843.0 88 16 109
-411.9624326862765 -70.78809260889227 802.0 62 9 102
-427.73132963120577 -73.49768467047666 833.0 79 13 108
-77.79981248796443 -13.718206035687507 467.0 64 9 102
-100.45039080724521 -17.712114122026907 474.0 64 9 102
-118.17693036146497 -20.837781320031656 487.0 101 21 110
-137.87308542170913 -24.310744873370265 496.0 90 17 109
-143.78193193978237 -25.35263393937185 509.0 129 31 107
-154.61481722291666 -27.262763893708083 862.0 67 10 104
-169.38693351809977 -29.86748655871204 543.0 136 33 106
-173.32616453014862 -30.562079269379762 742.0 79 13 108
-175.29578003617303 -30.909375624713622 558.0 91 17 110
-178.25020329520964 -31.430320157714416 768.0 88 16 109
-186.12866531930732 -32.81950557904986 582.0 93 18 110
-201.88558936750263 -35.59787642172075 781.0 139 34 105
-212.71847465063692 -37.50800637605698 796.0 166 44 95
-213.70328240364913 -37.68165455372391 597.0 101 21 110
-214.68809015666136 -37.85530273139084 671.0 88 16 109
-215.67289790967357 -38.02895090905777 825.0 200 62 75
-221.5817444277468 -39.07083997505936 659.0 88 16 109
-231.42982195786888 -40.80732175172866 619.0 122 28 109
-232.4146297108811 -40.98096992939559 633.0 142 36 104
-316.12328871691875 -55.74106503108468 894.0 129 31 107
-358.4700220964437 -63.20793667076269 871.0 241 242 125
-360.4396376024681 -63.55523302609655 829.0 227 88 50
-411.64964075910297 -72.58493826477694 802.0 64 9 102
-441.1938733494692 -77.79438359478485 826.0 90 17 109
