ply
format ascii 1.0
element vertex 892
property float32 x
property float32 y
property float32 z
property uint8 red
property uint8 green
property uint8 blue
end_header
107.65267622252989 -341.4306683678652 681.0 56 0 198
159.44140946742087 -330.5562538313899 681.0 104 0 150
240.7736636395161 -276.9784159417574 681.0 215 0 39
230.33041555591913 -289.56501803539317 681.0 172 0 82
171.30873551019732 -329.0810191091204 681.0 190 0 64
208.89440761537028 -312.6325742257571 681.0 92 0 162
192.7574934510487 -323.9962171360476 681.0 173 0 81
45.32481090475572 -106.7785630004831 682.0 77 0 177
63.019495966751485 -110.26124944012103 682.0 86 0 168
-47.894480330171106 -141.09258929477073 682.0 102 0 152
105.86003187781998 -123.94617239280502 682.0 66 0 188
-62.25364950165257 -156.04000488248323 682.0 84 0 170
130.81475451951127 -130.81475451951133 682.0 89 0 165
-70.95399670088614 -192.32922386410922 682.0 77 0 177
145.83820610691112 -149.70710617575278 682.0 61 0 193
151.4355247600614 -156.81607647382594 682.0 56 0 198
-75.10654332759853 -212.09433549574013 682.0 107 0 147
169.70562748477136 -169.70562748477144 682.0 62 0 192
-72.47009768052999 -229.84578513032264 682.0 174 0 80
177.41171056290403 -178.9667146570679 682.0 92 0 162
-67.8620533301574 -248.91512954783377 682.0 52 0 202
-60.471097195891204 -267.2437958193325 682.0 203 0 51
200.81718145261192 -192.24062950747103 682.0 137 0 117
-50.010675168075934 -283.6246328675159 682.0 57 0 197
-40.77771858129929 -290.14854414128007 682.0 88 0 166
216.7595370221764 -198.62352103900417 682.0 71 0 183
-29.7558542987867 -295.5056499205208 682.0 138 0 116
221.76539784957703 -204.9978251509484 682.0 96 0 158
-16.119474522826575 -307.5778967044088 682.0 74 0 180
230.57726796280525 -213.1434340973437 682.0 119 0 135
-15.1131104842233 -314.63724174275944 682.0 153 0 101
-5.915044039881715e-14 -322.0 682.0 86 0 168
11.272537434907626 -322.8032371271679 682.0 166 0 88
238.1773071515448 -224.05483783671949 682.0 128 0 126
43.726274393717176 -332.1340285602265 682.0 244 0 10
243.95183950935885 -243.95183950935896 682.0 107 0 147
85.90749926711838 -338.2615874876573 682.0 255 0 0
77.24410225752514 -341.3698121779795 682.0 161 0 93
26.012080058585006 -350.03481496991947 682.0 54 0 200
120.04907030730982 -329.8321098958538 682.0 61 0 193
108.22682615494386 -338.1005088733638 682.0 55 0 199
245.48713480270567 -256.4392065312132 682.0 82 0 172
133.35994725606466 -330.0774522257763 682.0 137 0 117
240.11760461052558 -276.22370636153465 682.0 210 0 44
159.44140946742087 -330.5562538313899 682.0 103 0 151
229.7079009192815 -288.78240987854076 682.0 152 0 102
171.30873551019732 -329.0810191091204 682.0 159 0 95
211.61465281334577 -310.79774567182295 682.0 82 0 172
193.26878653712575 -324.8556235475491 682.0 129 0 125
18.289746415694648 -106.4400543782724 683.0 56 0 198
-0.959918904821191 -109.99581153705884 683.0 74 0 180
42.614105313631185 -106.81309858027127 683.0 81 0 173
62.53779213314029 -110.53517338436727 683.0 82 0 172
-47.27839380435881 -141.30022462572367 683.0 119 0 135
108.90579881242417 -125.28179031698019 683.0 87 0 167
-61.57220608968193 -156.31015142098013 683.0 70 0 184
-64.15153277621522 -164.9653928630553 683.0 75 0 179
130.81475451951127 -130.81475451951133 683.0 104 0 150
-72.14272053945032 -192.9544709851699 683.0 90 0 164
146.29818737839673 -145.02703323792954 683.0 66 0 188
-75.10654332759853 -212.09433549574013 683.0 123 0 131
168.29141392239828 -168.29141392239836 683.0 76 0 178
-72.47009768052999 -229.84578513032264 683.0 214 0 40
177.41171056290403 -178.9667146570679 683.0 119 0 135
-60.471097195891204 -267.2437958193325 683.0 234 0 20
200.81718145261192 -192.24062950747103 683.0 165 0 89
-47.53371048787531 -284.05025324272265 683.0 55 0 199
215.51199938844417 -194.04787584406904 683.0 62 0 192
-40.77771858129929 -290.14854414128007 683.0 91 0 163
-29.7558542987867 -295.5056499205208 683.0 219 0 35
220.29675283070566 -203.6402236598825 683.0 131 0 123
-15.1131104842233 -314.63724174275944 683.0 218 0 36
231.31159047224094 -213.82223484287664 683.0 148 0 106
-5.878304635907295e-14 -320.0 683.0 108 0 146
11.237637938205127 -321.80384630014885 683.0 158 0 96
237.44893618166242 -223.36965484639313 683.0 153 0 101
43.726274393717176 -332.1340285602265 683.0 232 0 22
241.6981729137867 -233.4052124742232 683.0 136 0 118
244.997124110677 -247.14451071690328 683.0 146 0 108
75.53742526439775 -340.7273064848568 683.0 189 0 65
85.90749926711838 -338.2615874876573 683.0 255 0 0
24.484522284187953 -350.14498164119834 683.0 73 0 181
181.29340236833906 -301.72288984714356 683.0 61 0 193
107.92196185591585 -337.14811307372054 683.0 59 0 195
129.7414342604011 -329.36781906563675 683.0 181 0 73
106.75496699120545 -343.8071800045872 683.0 68 0 186
239.46154558153506 -275.4689967813119 683.0 241 0 13
160.3102999822297 -332.35765031003507 683.0 85 0 169
229.7079009192815 -288.78240987854076 683.0 164 0 90
128.40942817574992 -348.0689856272416 683.0 65 0 189
173.6742160812665 -330.1003887737146 683.0 170 0 84
208.89440761537028 -312.6325742257571 683.0 113 0 141
192.7574934510487 -323.9962171360476 683.0 153 0 101
-0.48432733060685956 -110.99894336000153 684.0 54 0 200
38.6482761958006 -106.18526614880764 684.0 69 0 185
63.019495966751485 -110.26124944012103 684.0 91 0 163
-47.5956984607639 -142.2485482809299 684.0 99 0 155
100.27486711110012 -119.50293312656059 684.0 51 0 203
107.15892797448033 -125.46698432400508 684.0 75 0 179
113.4991548794309 -123.86259258410087 684.0 75 0 179
-62.33934258479671 -160.30535351664133 684.0 92 0 162
130.81475451951127 -130.81475451951133 684.0 107 0 147
147.00837275402 -145.73104796238553 684.0 71 0 183
-73.5435500644882 -196.7011597421635 684.0 105 0 149
-74.10512274989722 -209.2664110224636 684.0 133 0 121
168.29141392239828 -168.29141392239836 684.0 75 0 179
-72.77080348003426 -230.79950208107087 684.0 190 0 64
175.2273160749626 -178.31261228854547 684.0 99 0 155
-60.029702325848206 -265.2931111783155 684.0 182 0 72
200.81718145261192 -192.24062950747103 684.0 185 0 69
-40.08185307649896 -285.19720379757223 684.0 59 0 195
-39.78102443074848 -292.3054397291302 684.0 66 0 188
-29.7558542987867 -295.5056499205208 684.0 232 0 22
218.8281078118343 -202.28262216881663 684.0 93 0 161
-5.54765000013751e-14 -302.0 684.0 51 0 203
-13.740107020080881 -314.7001897982852 684.0 191 0 63
232.04591298167662 -214.50103558840956 684.0 140 0 114
1.4049855896882493 -321.9969347920765 684.0 121 0 133
12.680920490179172 -322.7509787057535 684.0 214 0 40
235.9921942418976 -221.99928886574043 684.0 141 0 113
27.326708479027136 -328.86661582426126 684.0 73 0 181
45.1750616416973 -331.9400756246055 684.0 255 0 0
65.06586742340158 -334.73486955565346 684.0 146 0 108
177.41870086873715 -298.214024791004 684.0 53 0 201
75.32098565045966 -339.7510104777368 684.0 202 0 52
244.997124110677 -247.14451071690328 684.0 155 0 99
87.88338142310866 -339.8198217727159 684.0 223 0 31
180.48645938519945 -303.37046326001274 684.0 61 0 193
132.98534066264875 -329.15026837120956 684.0 110 0 144
105.86534226627874 -340.94212017121566 684.0 74 0 180
157.7036284378032 -326.9534608740995 684.0 59 0 195
238.80548655254458 -274.7142872010891 684.0 206 0 48
228.4456672953285 -289.7819474949951 684.0 152 0 102
173.6742160812665 -330.1003887737146 684.0 204 0 50
187.00000000000003 -323.89350101538 684.0 136 0 118
212.4023388468122 -309.0473207332559 684.0 84 0 170
62.05489767011328 -110.80699289824523 685.0 86 0 168
-46.661407166078796 -141.50516980407963 685.0 93 0 161
101.32058295902372 -125.12049979457238 685.0 53 0 201
108.35811890881193 -125.75578740775224 685.0 68 0 186
-62.70178062308041 -161.23736138592412 685.0 86 0 168
118.66771465087476 -127.25554408173564 685.0 52 0 202
-65.93970271633533 -171.7787984754851 685.0 75 0 179
132.22896808188435 -132.2289680818844 685.0 85 0 169
-69.22566531218705 -178.0135030330145 685.0 61 0 193
-70.60787964380864 -191.39103252818674 685.0 120 0 134
146.29818737839673 -145.02703323792954 685.0 80 0 174
-72.6845819862736 -197.02018054372164 685.0 100 0 154
-75.10654332759853 -212.09433549574013 685.0 119 0 135
168.29141392239828 -168.29141392239836 685.0 84 0 170
-72.77080348003426 -230.79950208107087 685.0 172 0 82
176.70769583844805 -178.2565292814446 685.0 98 0 156
-61.41163783587521 -266.0030276863692 685.0 139 0 115
200.81718145261192 -192.24062950747103 685.0 154 0 100
-59.409748203805016 -273.6247098095501 685.0 126 0 128
-41.612860377442026 -286.9989021777044 685.0 59 0 195
-29.655666237174625 -294.5106814022699 685.0 186 0 68
218.0937853023986 -201.60382142328368 685.0 90 0 164
-12.445361595624878 -316.75560448830913 685.0 129 0 125
231.83912341327692 -216.19348013981215 685.0 145 0 109
-5.878304635907295e-14 -320.0 685.0 88 0 166
12.641660674420104 -321.7517496695128 685.0 246 0 8
237.19741932101803 -225.09194625185756 685.0 122 0 132
25.891501590188625 -328.98272013193224 685.0 55 0 199
45.1750616416973 -331.9400756246055 685.0 242 0 12
242.8850799373091 -245.01395459003342 685.0 155 0 99
75.75386487833586 -341.7036024919767 685.0 196 0 58
87.88338142310866 -339.8198217727159 685.0 255 0 0
106.75055882401708 -338.56951751562053 685.0 81 0 173
130.47443671384968 -331.22865420160076 685.0 137 0 117
146.01845486421212 -327.96281929369377 685.0 58 0 196
238.80548655254458 -274.7142872010891 685.0 228 0 26
229.0853862826439 -287.99980172168836 685.0 137 0 117
173.20860156094142 -329.21540113625156 685.0 177 0 77
129.1016622899049 -349.94536829908657 685.0 52 0 202
186.50000000000003 -323.0274756115956 685.0 108 0 146
208.3388373823507 -311.8011046134545 685.0 88 0 166
-13.516800707651425 -114.2028725498165 686.0 46 0 208
44.68053684758706 -109.21377947407285 686.0 49 0 205
48.32960278304844 -109.83737749433367 686.0 46 0 208
61.570821771284834 -111.07670280670324 686.0 83 0 171
-45.73451516749224 -140.7563644116827 686.0 105 0 149
101.86555789856507 -124.67721569723189 686.0 44 0 210
108.35811890881193 -125.75578740775224 686.0 61 0 193
-61.614466508229306 -158.44133777807573 686.0 73 0 181
117.98571629081225 -126.52419038011647 686.0 59 0 195
130.81475451951127 -130.81475451951133 686.0 89 0 165
-68.44827836315244 -178.3138614609655 686.0 63 0 191
146.92959252576142 -144.38730844576926 686.0 68 0 186
-72.3384649291961 -196.08198920779915 686.0 94 0 160
152.11832024548625 -156.15382366657468 686.0 51 0 203
-73.77131589066344 -208.3237695313714 686.0 112 0 142
161.18959622342808 -165.4657489310952 686.0 55 0 199
168.29141392239828 -168.29141392239836 686.0 55 0 199
-72.77080348003426 -230.79950208107087 686.0 148 0 106
177.41171056290403 -178.9667146570679 686.0 78 0 176
-65.84994106631797 -254.62282941944235 686.0 56 0 198
200.81718145261192 -192.24062950747103 686.0 143 0 111
-59.197570531648566 -272.6474787030874 686.0 153 0 101
-48.77265710851916 -283.8401450087264 686.0 48 0 206
-41.612860377442026 -286.9989021777044 686.0 84 0 170
-29.655666237174625 -294.5106814022699 686.0 157 0 97
219.56243032126997 -202.96142291434955 686.0 95 0 159
228.91370860680024 -213.46548669956215 686.0 113 0 141
-12.366841964106738 -314.7571464158277 686.0 109 0 145
-4.136312200544925 -315.9729275133862 686.0 109 0 145
12.641660674420104 -321.7517496695128 686.0 207 0 47
29.829527684268996 -324.63240638933974 686.0 70 0 184
236.47204495000574 -224.4035916761638 686.0 119 0 135
46.762161922581996 -332.73007109716764 686.0 194 0 60
23.7869575467467 -340.1693411386001 686.0 55 0 199
242.51460544774827 -246.78465540734695 686.0 124 0 130
73.83782991044325 -340.07642504901224 686.0 209 0 45
87.88338142310866 -339.8198217727159 686.0 217 0 37
106.75055882401708 -338.56951751562053 686.0 91 0 163
131.91844775350177 -330.65620082240497 686.0 182 0 72
238.14942752355407 -273.9595776208663 686.0 146 0 108
228.46287164600628 -287.21719356483595 686.0 146 0 108
139.72133980304764 -341.524445982482 686.0 45 0 209
126.88947317382319 -348.625962311572 686.0 44 0 210
175.11289291913712 -329.3394521363798 686.0 154 0 100
186.50000000000003 -323.0274756115956 686.0 87 0 167
211.26952637296253 -307.3990683560119 686.0 130 0 124
37.584733559957776 -107.6261483247774 688.0 56 0 198
-20.819394820439555 -115.13276162461602 688.0 50 0 204
42.88064352674273 -108.8588554538969 688.0 70 0 184
62.543518911610235 -111.67948890531802 688.0 82 0 172
-46.043532161867184 -141.70742092797786 688.0 93 0 161
114.17474508704656 -124.59986992091099 688.0 53 0 201
-61.63928732179172 -160.5758333575187 688.0 71 0 183
131.7709416883719 -134.0910844409862 688.0 82 0 172
-67.6695882575637 -178.61082505002824 688.0 67 0 187
147.6428429749156 -145.0882177100691 688.0 60 0 194
-72.3384649291961 -196.08198920779915 688.0 90 0 164
-74.10512274989722 -209.2664110224636 688.0 127 0 127
-72.1693918810257 -228.8920681795744 688.0 141 0 113
178.8980156401965 -178.89801564019658 688.0 108 0 146
-68.38811575907334 -250.8447041954914 688.0 53 0 201
-59.73733344691638 -269.4576979651016 688.0 162 0 92
201.53954541467166 -192.93214256325328 688.0 148 0 106
-41.32587513345967 -285.01959940406505 688.0 79 0 175
-43.60377628323534 -291.7596796917654 688.0 53 0 201
-29.655666237174625 -294.5106814022699 688.0 152 0 102
218.8281078118343 -202.28262216881663 688.0 87 0 167
-9.253169502576284 -302.858678023524 688.0 48 0 206
-13.696487632715545 -313.7011415767033 688.0 71 0 183
-5.532412840618869 -316.95171936457604 688.0 117 0 137
12.563141042901966 -319.7532915970313 688.0 227 0 27
233.80708133225042 -219.94373989476134 688.0 131 0 123
29.738026065605595 -323.63660146176505 688.0 95 0 159
48.357013611027334 -333.5125173582289 688.0 143 0 111
241.8136961834484 -246.07140495819274 688.0 114 0 140
73.83782991044325 -340.07642504901224 688.0 241 0 13
97.94015491084718 -336.01744903507506 688.0 159 0 95
21.42803737673461 -350.3453142460753 688.0 48 0 206
87.88338142310866 -339.8198217727159 688.0 110 0 144
39.96073446007102 -350.73086505383543 688.0 48 0 206
241.65306540972716 -261.41881335910415 688.0 65 0 189
134.1091604428965 -331.9318199349099 688.0 167 0 87
103.46246026013785 -343.7681185289285 688.0 73 0 181
237.60454989643097 -275.75365431579405 688.0 127 0 127
229.08799081936547 -285.4377208119949 688.0 139 0 115
128.06331111867243 -347.13079429131915 688.0 48 0 206
175.11289291913712 -329.3394521363798 688.0 156 0 98
187.50000000000003 -324.7595264191645 688.0 129 0 125
212.4023388468122 -309.0473207332559 688.0 116 0 138
37.72017509341611 -106.51848849341616 689.0 59 0 195
-22.19636028503943 -116.91159732933565 689.0 52 0 202
62.05563139153117 -111.95132251384264 689.0 80 0 174
-44.50445832663252 -141.15010871073756 689.0 94 0 160
103.1309685556901 -126.22600098539627 689.0 52 0 202
114.97472407132825 -126.57729980024827 689.0 76 0 178
-61.646640611602535 -162.71352648536603 689.0 89 0 165
131.7709416883719 -134.0910844409862 689.0 82 0 172
-68.80664631269774 -179.2474418874627 689.0 76 0 178
145.58800200277344 -144.32301851347358 689.0 64 0 190
-71.14018981173923 -195.4560651234689 689.0 96 0 158
-74.10512274989722 -209.2664110224636 689.0 122 0 132
-72.1693918810257 -228.8920681795744 689.0 152 0 102
177.48380207782338 -177.48380207782347 689.0 136 0 118
-64.98446935965411 -255.87696016258317 689.0 57 0 197
-58.77321518733567 -270.69301649016205 689.0 184 0 70
201.53954541467166 -192.93214256325328 689.0 149 0 105
216.62514028352723 -200.2462199322178 689.0 73 0 181
-28.56203425102661 -296.6280671134193 689.0 172 0 82
225.43701039675545 -208.3918288786131 689.0 88 0 166
-15.065132355701957 -313.6383933562745 689.0 113 0 141
-5.532412840618869 -316.95171936457604 689.0 100 0 154
231.6219684226032 -217.88819092378228 689.0 156 0 98
12.523881227142898 -318.7540625607906 689.0 201 0 53
236.2130155935399 -226.12476924080224 689.0 98 0 156
34.28533595179047 -326.20318168079365 689.0 52 0 202
48.357013611027334 -333.5125173582289 689.0 165 0 89
96.8492325440375 -326.95752959005387 689.0 67 0 187
241.11278691914856 -245.35815450903857 689.0 137 0 117
74.05000758259969 -341.0536561554749 689.0 255 0 0
99.12135530166888 -334.6280874689994 689.0 118 0 136
86.39980585317636 -340.20004930707086 689.0 184 0 70
240.9742646641942 -260.68449084966846 689.0 83 0 171
104.08432688129427 -340.44449312284064 689.0 120 0 134
130.84093794057398 -332.1590717695828 689.0 205 0 49
237.60454989643097 -275.75365431579405 689.0 123 0 131
228.4620673471814 -284.65783632890196 689.0 171 0 83
174.17394979356536 -327.57355695066195 689.0 136 0 118
210.70312013603768 -306.5749421673899 689.0 110 0 144
185.58497237452798 -324.70635661893914 689.0 137 0 117
1.426765917276532 -108.99066170556677 690.0 55 0 199
10.920498715716292 -108.45156848934937 690.0 50 0 204
-13.399263310193586 -113.20980409286159 690.0 64 0 190
47.926856093189706 -108.92206601521421 690.0 57 0 197
62.05563139153117 -111.95132251384264 690.0 110 0 144
-43.888153096384514 -141.34295177966362 690.0 99 0 155
103.04467168499781 -125.00318250881058 690.0 53 0 201
-60.229476459611675 -158.972985646622 690.0 79 0 175
114.85033529466222 -125.33714725772111 690.0 82 0 172
131.7709416883719 -134.0910844409862 690.0 82 0 172
-67.6695882575637 -178.61082505002824 690.0 70 0 184
-70.95399670088614 -192.32922386410922 690.0 57 0 197
153.5194998714384 -158.97409587484188 690.0 66 0 188
-75.35542811474193 -209.88225140217065 690.0 127 0 127
-73.61468028598149 -220.01108800783823 690.0 68 0 186
165.4629867976521 -165.46298679765215 690.0 65 0 189
-72.1693918810257 -228.8920681795744 690.0 155 0 99
173.31985914446614 -170.32095122486373 690.0 68 0 186
178.19090885900994 -178.19090885901002 690.0 91 0 163
-67.29295172665536 -251.14071483515775 690.0 82 0 172
194.67736752903673 -176.8324703553178 690.0 48 0 206
-58.77321518733567 -270.69301649016205 690.0 156 0 98
201.53954541467166 -192.93214256325328 690.0 135 0 119
217.35946279296292 -200.92502067775072 690.0 89 0 165
-28.56203425102661 -296.6280671134193 690.0 178 0 76
-13.609248857984873 -311.70304513353966 690.0 153 0 101
12.523881227142898 -318.7540625607906 690.0 160 0 94
232.3503393924856 -218.57337391410863 690.0 149 0 105
24.678127235067826 -332.0843116381287 690.0 48 0 206
49.81177155067889 -333.298345952966 690.0 195 0 59
240.06902103948522 -242.1732130875403 690.0 131 0 123
74.05000758259969 -341.0536561554749 690.0 224 0 30
87.88338142310866 -339.8198217727159 690.0 212 0 42
104.38263439140088 -336.16702044892975 690.0 241 0 13
129.02794162899772 -331.7948014646763 690.0 159 0 95
240.03495025417652 -264.25787151279906 690.0 70 0 184
169.47923416570643 -318.7440810220727 690.0 50 0 204
236.95179014396825 -274.99608933141 690.0 120 0 134
227.83614387499733 -283.8779518458091 690.0 205 0 49
158.57251895261203 -328.7548573527447 690.0 124 0 130
186.90014548389019 -320.48297243083084 690.0 103 0 151
210.70312013603768 -306.5749421673899 690.0 120 0 134
176.54823585994666 -328.5722453506088 690.0 60 0 194
-6.776387888369105 -110.79296262482724 691.0 52 0 202
33.67904954447863 -106.8162984838014 691.0 71 0 183
-12.90516636954139 -113.26719154713096 691.0 50 0 204
-17.49418941184047 -113.66157370379247 691.0 52 0 202
47.05239013317906 -108.21308877744464 691.0 59 0 195
-22.897079445185355 -117.79526201371968 691.0 48 0 206
61.08557365276219 -111.3442979748535 691.0 73 0 181
-42.97864059424236 -140.5767991265662 691.0 93 0 161
103.04467168499781 -125.00318250881058 691.0 47 0 207
-60.235669576628425 -161.10761655072437 691.0 72 0 182
117.43252897719887 -127.03779413237363 691.0 90 0 164
130.3691231597722 -132.66458354267783 691.0 84 0 170
134.57457874557127 -136.94408623760293 691.0 86 0 168
-68.37817033355914 -180.48109546940026 691.0 71 0 183
-72.62966278953172 -191.7027179856324 691.0 48 0 206
-74.34167796073194 -207.05872335640154 691.0 110 0 144
165.4629867976521 -165.46298679765215 691.0 72 0 182
171.912466421917 -167.46971036200324 691.0 49 0 205
-73.77716036477871 -230.47978351367334 691.0 124 0 130
-68.90933895424972 -240.31542398457975 691.0 49 0 205
181.80745615956099 -180.22776946072798 691.0 95 0 159
-65.23062265268311 -256.8461910722899 691.0 90 0 164
-57.799450047337224 -271.92503300399795 691.0 188 0 66
201.53954541467166 -192.93214256325328 691.0 133 0 121
215.89081777409154 -199.56741918668484 691.0 71 0 183
-28.370342745986164 -294.63727471668494 691.0 164 0 90
-13.565629470619537 -310.7039969119578 691.0 112 0 142
4.162491391687497 -317.9727561685342 691.0 86 0 168
232.3503393924856 -218.57337391410863 691.0 127 0 127
15.448957383872589 -321.6291804481541 691.0 180 0 74
235.94345451107748 -227.8479455105512 691.0 71 0 183
49.81177155067889 -333.298345952966 691.0 196 0 58
240.0399181855379 -246.40786853808115 691.0 129 0 125
110.4220204289721 -330.01663201175734 691.0 82 0 172
72.56118009539804 -341.37351265609817 691.0 231 0 23
89.61988576834564 -340.400170497708 691.0 149 0 105
110.8599874952475 -336.19349067546443 691.0 126 0 128
102.3096751876015 -339.9378330857092 691.0 52 0 202
239.36258344674187 -263.5176533853122 691.0 91 0 163
131.20743916729828 -333.0894893375648 691.0 120 0 134
227.2102204028133 -283.0980673627162 691.0 187 0 67
235.74964154385674 -276.0273655128112 691.0 93 0 161
158.57251895261203 -328.7548573527447 691.0 105 0 149
210.70312013603768 -306.5749421673899 691.0 104 0 150
187.50000000000003 -324.7595264191645 691.0 82 0 172
-12.193089983420087 -111.33430988089978 692.0 58 0 196
-17.49418941184047 -113.66157370379247 692.0 51 0 203
40.97426360735766 -109.59064614206252 692.0 53 0 201
61.07632131322987 -112.48859042073157 692.0 92 0 162
-42.3648514157111 -140.76299003830775 692.0 99 0 155
103.68074990527558 -125.7748070921983 692.0 53 0 201
114.85033529466222 -125.33714725772111 692.0 77 0 177
-59.87825087440635 -162.30710111458973 692.0 58 0 196
133.97576828960257 -137.52997313753366 692.0 89 0 165
-67.59002458307725 -180.77773252494072 692.0 95 0 159
150.740257871799 -160.24161337412806 692.0 54 0 200
-75.35542811474193 -209.88225140217065 692.0 127 0 127
164.048773235279 -164.04877323527907 692.0 90 0 164
-73.77716036477871 -230.47978351367334 692.0 119 0 135
174.7463600427745 -171.72276975346344 692.0 51 0 203
-71.28785152068458 -240.66375345191645 692.0 65 0 189
179.67690003269112 -178.11572528736008 692.0 84 0 170
-65.23062265268311 -256.8461910722899 692.0 107 0 147
-57.59153835651946 -270.94688540326416 692.0 202 0 52
202.2619093767314 -193.62365561903556 692.0 138 0 116
215.01798827603602 -200.50751785837468 692.0 69 0 185
-27.08447912436705 -294.7582585620999 692.0 183 0 71
-12.013503622275119 -305.7640850896612 692.0 67 0 187
223.79423269546606 -208.69149817912466 692.0 89 0 165
-6.915318555955785 -316.92456258433117 692.0 69 0 185
229.94367561089516 -218.20840049492003 692.0 130 0 124
4.175580987258841 -318.9726704961082 692.0 164 0 90
15.400979255351245 -320.63033206166915 692.0 176 0 78
28.238460650241155 -322.7670821817256 692.0 70 0 184
49.663962139549284 -332.30933008960403 692.0 199 0 55
238.96247943789507 -247.45289131649596 692.0 135 0 119
97.9852939228532 -330.79280852952667 692.0 55 0 199
72.7690917862158 -342.35166025683196 692.0 255 0 0
86.89211243923435 -342.13851112648433 692.0 213 0 41
239.1589334959437 -260.996177230784 692.0 79 0 175
102.3096751876015 -339.9378330857092 692.0 85 0 169
129.39037966728142 -332.72680933395907 692.0 234 0 20
234.45074544719637 -274.5065535816111 692.0 89 0 165
227.2102204028133 -283.0980673627162 692.0 196 0 58
158.13807369520762 -327.8541591134221 692.0 76 0 178
213.37043432258912 -304.724560475505 692.0 87 0 167
187.9076934379812 -322.21064344123965 692.0 145 0 109
28.728914006379753 -107.2177667180866 693.0 44 0 210
-16.35815890699445 -112.8202580974424 693.0 56 0 198
-22.515461454432263 -115.83200764682435 693.0 58 0 196
61.07632131322987 -112.48859042073157 693.0 95 0 159
-42.68626888951962 -139.62049437060315 693.0 84 0 170
112.53400155414096 -126.08369638542725 693.0 58 0 196
-59.1694847953408 -162.56682339596213 693.0 59 0 195
119.90702330711284 -127.46491972942006 693.0 55 0 199
133.87366948127143 -136.23083578844873 693.0 104 0 150
-67.59002458307725 -180.77773252494072 693.0 83 0 171
-72.49292792070979 -193.8911431744183 693.0 76 0 178
152.11832024548625 -156.15382366657468 693.0 70 0 184
-75.24443153164727 -206.7323765728998 693.0 99 0 155
163.34166645409243 -163.34166645409252 693.0 74 0 180
-74.57395595033354 -219.6877900428645 693.0 69 0 185
-73.4722960657507 -229.52738771403006 693.0 99 0 155
172.62876836534164 -168.16750082184492 693.0 57 0 197
-69.6774244937171 -239.05241374209623 693.0 50 0 204
-67.8620533301574 -248.91512954783377 693.0 65 0 189
183.22782691080755 -181.63579890963993 693.0 57 0 197
-67.21491432625932 -255.30012787328099 693.0 75 0 179
-57.59153835651946 -270.94688540326416 693.0 147 0 107
202.2619093767314 -193.62365561903556 693.0 129 0 125
215.74934197765518 -201.18951621843718 693.0 63 0 191
-27.175980743030454 -295.75406348967454 693.0 153 0 101
-11.89572417499791 -302.766397980939 693.0 74 0 180
223.79423269546606 -208.69149817912466 693.0 82 0 172
-5.480055621307018 -313.9521762791069 693.0 88 0 166
229.21830123988286 -217.52004591922628 693.0 119 0 135
4.149401796116153 -316.9728418409602 693.0 163 0 91
16.79984195398472 -320.56008065621825 693.0 126 0 128
32.761496147148875 -325.3547054680481 693.0 70 0 184
234.94703744328655 -228.8752708280711 693.0 80 0 174
49.663962139549284 -332.30933008960403 693.0 174 0 80
99.63796919179175 -320.88670133761474 693.0 47 0 207
238.57200424488298 -249.21556691061562 693.0 112 0 142
71.47825465020212 -343.64496084208895 693.0 192 0 62
88.1337614271631 -340.787969413094 693.0 199 0 55
104.38263439140088 -336.16702044892975 693.0 132 0 122
238.48334328832803 -260.2588998939738 693.0 79 0 175
129.39037966728142 -332.72680933395907 693.0 219 0 35
232.6046326714671 -274.7636891217103 693.0 68 0 186
226.59532773609342 -284.8693690942787 693.0 152 0 102
162.31994931037337 -329.15229614249665 693.0 70 0 184
211.649705013536 -302.267104342638 693.0 90 0 164
188.41146741502675 -323.074478946444 693.0 92 0 162
-9.274519241366827 -111.61533627974929 694.0 69 0 185
30.401330384888276 -107.79498648280851 694.0 58 0 196
42.76768851747677 -109.97692857537022 694.0 64 0 190
-22.70627044980881 -116.81363483027201 694.0 70 0 184
60.58491739965998 -112.75401449028934 694.0 116 0 138
-42.39389718479688 -138.66418961464012 694.0 95 0 159
109.66363841373737 -127.27091737652033 694.0 58 0 196
-58.48544450868946 -160.6874381543903 694.0 63 0 191
116.20151570989354 -126.81170193134136 694.0 99 0 155
133.27797782976089 -136.813671194109 694.0 105 0 149
-66.80059201595621 -181.07092783303943 694.0 72 0 182
151.42052978564456 -155.43752172315 694.0 76 0 178
-75.58645167497293 -207.6720691936857 694.0 105 0 149
-75.49915776517842 -216.19638566994755 694.0 78 0 176
165.47319252022544 -164.0354307982407 694.0 86 0 168
-74.16407864998742 -228.25356391083685 694.0 119 0 135
184.01861588177889 -180.8345901893615 694.0 64 0 190
-67.03413268155285 -250.1747890088687 694.0 90 0 164
202.2619093767314 -193.62365561903556 694.0 142 0 112
-56.022389571232445 -275.3588419984531 694.0 152 0 102
214.28663457441684 -199.8255194983122 694.0 67 0 187
-27.08447912436705 -294.7582585620999 694.0 170 0 84
-11.660165280443497 -296.7710237634947 694.0 59 0 195
-13.216674371696849 -302.71161113930293 694.0 59 0 195
-16.171810479069517 -308.57652623916334 694.0 76 0 178
226.31680375583372 -214.76662761645125 694.0 117 0 137
-5.480055621307018 -313.9521762791069 694.0 152 0 102
4.149401796116153 -316.9728418409602 694.0 111 0 143
16.74750599774178 -319.5614511214637 694.0 145 0 109
232.60119578324114 -222.6672039618909 694.0 94 0 160
236.88077169749337 -236.8807716974935 694.0 96 0 158
51.113457759812036 -332.0894675171676 694.0 192 0 62
239.26351730066526 -249.93793087267537 694.0 131 0 123
71.27461289906195 -342.66591536960436 694.0 237 0 17
90.12908966475669 -342.3342623755359 694.0 157 0 97
109.39201600873132 -336.6740067684844 694.0 112 0 142
129.75281770556512 -333.6588172032419 694.0 150 0 104
232.6046326714671 -274.7636891217103 694.0 100 0 154
225.9728130994558 -284.0867609374263 694.0 231 0 23
162.31994931037337 -329.15229614249665 694.0 98 0 156
211.07612857718493 -301.447952298349 694.0 75 0 179
186.50000000000003 -323.0274756115956 694.0 113 0 141
63.02525063202385 -113.70056192812143 695.0 78 0 176
-41.78845887944292 -138.8478473166981 695.0 74 0 180
113.1998832201418 -126.82975376048894 695.0 88 0 166
-57.08097292897488 -161.1916949767625 695.0 53 0 201
-64.98382723187719 -178.54159794932255 695.0 66 0 188
133.87366948127143 -136.23083578844873 695.0 79 0 175
152.7982196173674 -155.48859791561165 695.0 63 0 191
-75.79963549997105 -205.463902567024 695.0 83 0 171
-75.8573799885175 -220.30582811464083 695.0 75 0 179
165.47319252022544 -164.0354307982407 695.0 75 0 179
-74.16407864998742 -228.25356391083685 695.0 104 0 150
182.5921149834705 -179.4327716607618 695.0 52 0 202
-67.29295172665536 -251.14071483515775 695.0 114 0 140
-55.623653702398045 -273.39899258921145 695.0 152 0 102
202.2619093767314 -193.62365561903556 695.0 97 0 157
212.9535277363488 -196.8522162045531 695.0 55 0 199
-28.274496993465938 -293.64187851831775 695.0 161 0 93
-16.119474522826575 -307.5778967044088 695.0 57 0 197
225.79500066354402 -212.4067270011714 695.0 100 0 154
-5.462603214869735 -312.9523285839505 695.0 142 0 112
5.567317653493318 -318.9514147548888 695.0 103 0 151
230.43410389706187 -220.59266479454408 695.0 89 0 165
18.19838480784413 -320.48372624890897 695.0 109 0 145
34.38986441505813 -327.1977035761619 695.0 57 0 197
235.46655813512027 -235.46655813512038 695.0 79 0 175
51.113457759812036 -332.0894675171676 695.0 144 0 110
237.48232861434502 -250.2541579992393 695.0 104 0 150
71.27461289906195 -342.66591536960436 695.0 206 0 48
113.9488540600047 -330.9315014597609 695.0 55 0 199
98.49981293890917 -337.9375487438469 695.0 104 0 150
86.89211243923435 -342.13851112648433 695.0 82 0 172
128.65409388676284 -335.15537311249545 695.0 255 0 0
231.95850869182414 -274.0004566519278 695.0 59 0 195
224.72778382618057 -282.52154462372147 695.0 174 0 80
161.8776606201544 -328.25542340096393 695.0 90 0 164
211.07612857718493 -301.447952298349 695.0 65 0 189
186.50000000000003 -323.0274756115956 695.0 114 0 140
-7.673212111853814 -109.73204552858066 696.0 64 0 190
11.975356233716118 -109.34619720445517 696.0 65 0 189
-11.707187885977275 -111.3864522812466 696.0 58 0 196
34.28046114348717 -108.72373238529786 696.0 55 0 199
62.52853995952036 -113.97447824197603 696.0 89 0 165
-41.21206634317474 -136.93270459508847 696.0 96 0 158
-56.74716606974111 -160.24905348567032 696.0 77 0 177
114.4213336873648 -127.07776515663437 696.0 71 0 183
-65.66786751852852 -180.4209831908944 696.0 92 0 162
135.27548800987114 -137.6573366867571 696.0 131 0 123
-77.18410372828102 -209.21666791071394 696.0 133 0 121
166.1833778958487 -164.73944552269668 696.0 82 0 172
-75.78564116906757 -229.82718854085417 696.0 130 0 124
179.89284401104732 -170.711934772051 696.0 67 0 187
182.5921149834705 -179.4327716607618 696.0 99 0 155
-67.29295172665536 -251.14071483515775 696.0 163 0 91
-55.623653702398045 -273.39899258921145 696.0 200 0 54
201.41514409482224 -194.50434372851933 696.0 139 0 115
212.9535277363488 -196.8522162045531 696.0 72 0 182
-28.178651240945715 -292.64648231995056 696.0 225 0 29
-13.08581620960084 -299.71446647455736 696.0 111 0 143
226.31680375583372 -214.76662761645125 696.0 123 0 131
-5.462603214869735 -312.9523285839505 696.0 128 0 126
5.532412840618752 -316.95171936457604 696.0 175 0 79
229.7117399350021 -219.90115173876183 696.0 136 0 118
16.695170041498834 -318.5628215867091 696.0 131 0 123
100.13503123492306 -317.5877445991595 696.0 61 0 193
235.8449326927494 -237.9121008338006 696.0 85 0 169
53.0312836486382 -334.8263474617517 696.0 178 0 76
237.07331465292026 -252.01635557931053 696.0 144 0 110
71.47825465020212 -343.64496084208895 696.0 255 0 0
89.87448771655117 -341.36721643662196 696.0 137 0 117
100.5414320251885 -339.42218614334035 696.0 145 0 109
109.39201600873132 -336.6740067684844 696.0 159 0 95
128.65409388676284 -335.15537311249545 696.0 230 0 24
232.6046326714671 -274.7636891217103 696.0 70 0 184
224.72778382618057 -282.52154462372147 696.0 177 0 77
161.43537192993537 -327.3585506594313 696.0 153 0 101
210.5025521408339 -300.62880025405997 696.0 75 0 179
185.50000000000003 -321.2954248040267 696.0 132 0 122
10.447187024704325 -108.49818562202249 697.0 52 0 202
23.127366265052625 -106.518190604432 697.0 59 0 195
-1.4398555128479167 -109.99057603314077 697.0 46 0 208
-7.2597473445458425 -110.76234047948499 697.0 49 0 205
27.323015526218168 -107.58463097744975 697.0 45 0 209
-10.734724282265034 -111.48437421712403 697.0 69 0 185
-20.9973383659134 -116.11680232226232 697.0 60 0 194
-26.92508707262309 -118.99176310203856 697.0 45 0 209
62.03063883374909 -114.2462246460555 697.0 118 0 136
-40.923870075040654 -135.97513323428367 697.0 87 0 167
-55.34658625771663 -160.73815785188387 697.0 92 0 162
114.97472407132825 -126.57729980024827 697.0 96 0 158
124.47235004080851 -130.02551317075597 697.0 69 0 185
134.57457874557127 -136.94408623760293 697.0 134 0 120
-66.0098876618542 -181.3606758116803 697.0 90 0 164
-72.62966278953172 -191.7027179856324 697.0 68 0 186
-77.39583125834234 -207.00455382389586 697.0 134 0 120
160.48135105969087 -157.70458446746642 697.0 48 0 206
166.1833778958487 -164.73944552269668 697.0 81 0 173
-75.47247736258382 -228.87748941465227 697.0 134 0 120
181.87886453431634 -178.73186239646196 697.0 83 0 171
-66.19650653343722 -251.4319441176252 697.0 139 0 115
-54.625290164516024 -274.6198785129045 697.0 160 0 94
202.13448389516088 -195.19900209897833 697.0 125 0 129
212.8239271711785 -198.46152277818717 697.0 66 0 188
-28.274496993465938 -293.64187851831775 697.0 201 0 53
-13.129435596966175 -300.7135146961392 697.0 134 0 120
225.59142938482142 -214.0782730407575 697.0 135 0 119
4.123222604973464 -314.9730131858122 697.0 224 0 30
228.98937597294236 -219.20963868297954 697.0 119 0 135
18.084999232717372 -318.4869429077943 697.0 104 0 150
234.43690324383746 -236.491730082554 697.0 95 0 159
53.18771811367843 -335.81403580234684 697.0 217 0 37
235.9714325816245 -253.04838076023293 697.0 129 0 125
71.27461289906195 -342.66591536960436 697.0 199 0 55
102.62246835768059 -335.66296934302545 697.0 165 0 89
85.88227293788194 -344.45498282797877 697.0 176 0 78
129.01246183630815 -336.08895353899266 697.0 152 0 102
144.98880834914533 -329.512132483001 697.0 48 0 206
222.87382175154 -282.7140951170684 697.0 188 0 66
232.6046326714671 -274.7636891217103 697.0 51 0 203
163.30839959818985 -327.54597634634126 697.0 137 0 117
210.5025521408339 -300.62880025405997 697.0 69 0 185
186.00000000000003 -322.1614502078112 697.0 159 0 95
22.662374299135777 -106.6180884799848 699.0 58 0 196
-6.236206631971548 -109.82308376130837 699.0 74 0 180
-10.156679671637644 -110.53434696078746 699.0 73 0 181
33.9797553439829 -107.77001543454963 699.0 68 0 186
-19.47519294263786 -113.33894679167892 699.0 70 0 184
62.03063883374909 -114.2462246460555 699.0 112 0 142
-40.923870075040654 -135.97513323428367 699.0 91 0 163
109.45140530661146 -124.8054080415102 699.0 84 0 170
-54.64470910153751 -160.97812201416795 699.0 70 0 184
120.5922062974392 -128.19329069930245 699.0 67 0 187
-65.66786751852852 -180.4209831908944 699.0 101 0 153
135.17082709554592 -136.35559211967077 699.0 130 0 124
-72.27537175153401 -190.76758277594638 699.0 81 0 173
154.88323938031303 -156.24078263712278 699.0 53 0 201
-78.09624602086127 -208.87789820239266 699.0 135 0 119
164.76300714460214 -163.33141607378474 699.0 71 0 183
-75.47247736258382 -228.87748941465227 699.0 130 0 124
174.08971485640097 -166.65464644352704 699.0 71 0 183
178.8980156401965 -178.89801564019658 699.0 63 0 191
-68.58704695216797 -255.9703439666031 699.0 102 0 152
201.41514409482224 -194.50434372851933 699.0 161 0 93
-54.82038048653215 -275.6006637933077 699.0 167 0 87
212.8239271711785 -198.46152277818717 699.0 74 0 180
-28.178651240945715 -292.64648231995056 699.0 255 0 0
-13.08581620960084 -299.71446647455736 699.0 122 0 132
-10.714145487667734 -306.8129838948624 699.0 117 0 137
224.86605501380913 -213.38991846506374 699.0 151 0 103
4.110133009402119 -313.9730988582382 699.0 184 0 70
228.03071670735233 -220.20670343550225 699.0 130 0 124
18.028306445153998 -317.4885512372369 699.0 114 0 140
234.45759450680447 -240.6774529906839 699.0 106 0 148
53.18771811367843 -335.81403580234684 699.0 242 0 12
167.25931898498635 -301.7437989630915 699.0 58 0 196
235.289434221562 -252.31702705861377 699.0 140 0 114
71.47825465020212 -343.64496084208895 699.0 204 0 50
105.84844142550426 -335.70836666337584 699.0 164 0 90
87.38441902529233 -344.07697294589786 699.0 202 0 52
115.57669483229049 -335.6590943377575 699.0 148 0 106
127.1904826411798 -335.71354027727824 699.0 239 0 15
222.87382175154 -282.7140951170684 699.0 183 0 71
212.08262862638873 -294.60135545329945 699.0 94 0 160
162.86220178508003 -326.65104198473927 699.0 133 0 121
185.50000000000003 -321.2954248040267 699.0 129 0 125
-5.277594137347819 -109.87332251334458 700.0 61 0 193
23.339543937209072 -107.49542171089468 700.0 68 0 186
-9.674287444990066 -110.57761148818375 700.0 82 0 172
-18.324652478836164 -112.51758578786644 700.0 65 0 189
61.531556734029664 -114.51579596670011 700.0 113 0 141
-23.095207629701733 -130.97943115062367 700.0 52 0 202
-40.61419429266094 -137.1112220861516 700.0 86 0 168
-53.30718227605556 -159.31837407464147 700.0 66 0 188
111.42944275191167 -127.06092746394714 700.0 109 0 145
-65.66786751852852 -180.4209831908944 700.0 120 0 134
135.17082709554592 -136.35559211967077 700.0 106 0 148
-72.27537175153401 -190.76758277594638 700.0 77 0 177
-77.94402835949745 -205.72974613092256 700.0 144 0 110
155.58725410476902 -156.95096801274605 700.0 52 0 202
164.76300714460214 -163.33141607378474 700.0 87 0 167
172.64498693228145 -165.27162033196248 700.0 115 0 139
-77.10503150643751 -230.4426482151064 700.0 135 0 119
181.01933598375612 -181.0193359837562 700.0 67 0 187
-66.45110848164273 -252.39899005653913 700.0 73 0 181
186.8716176783956 -183.63822724656092 700.0 78 0 176
-69.36350408747553 -258.8681214454703 700.0 80 0 174
-54.430199842499896 -273.63909323250124 700.0 168 0 86
201.41514409482224 -194.50434372851933 700.0 136 0 118
210.49921029601362 -198.01788420431785 700.0 62 0 192
-28.082805488425493 -291.6510861215834 700.0 255 0 0
-10.714145487667734 -306.8129838948624 700.0 229 0 25
223.93282823852408 -214.36904729250367 700.0 140 0 114
4.110133009402119 -313.9730988582382 700.0 170 0 84
227.31137690701368 -219.51204506504322 700.0 147 0 107
19.474484111619205 -318.4050006965756 700.0 173 0 81
234.09987084468207 -242.41751271412542 700.0 105 0 149
53.34415257871866 -336.80172414294196 700.0 213 0 41
234.1862572088648 -253.34126575531158 700.0 135 0 119
70.17751291485332 -344.93349602653205 700.0 220 0 34
109.08299901435637 -335.7229502521892 700.0 143 0 111
97.57562395921747 -340.2866403621649 700.0 153 0 101
221.02246964191116 -282.89586054481333 700.0 133 0 121
129.37082978585343 -337.02253396548986 700.0 232 0 22
211.4983789607513 -293.78978147133444 700.0 64 0 190
164.73602941970094 -326.8302932884763 700.0 128 0 126
183.60010635982715 -321.23356136098255 700.0 143 0 111
-5.229616008826476 -108.87447412685962 701.0 83 0 171
12.339150300701817 -108.29933226874805 701.0 52 0 202
-9.191711033854624 -110.61877077725151 701.0 56 0 198
-17.83352901458634 -112.59647082784569 701.0 73 0 181
33.622746043114724 -109.97504693574908 701.0 52 0 202
-23.52541626122928 -115.6311151452579 701.0 79 0 175
43.720889844526646 -113.89681203265862 701.0 59 0 195
-24.248124681135508 -127.71855170431625 701.0 51 0 203
61.531556734029664 -114.51579596670011 701.0 110 0 144
-40.2953780204629 -138.24717903157372 701.0 77 0 177
111.42944275191167 -127.06092746394714 701.0 114 0 140
123.90382362487567 -130.56738678221183 701.0 61 0 193
-64.8800098566388 -180.70579492922315 701.0 110 0 144
136.47160876900364 -136.4716087690037 701.0 125 0 129
-72.74869375769605 -189.51682657893193 701.0 78 0 176
-78.84094889996615 -205.38769382938435 701.0 108 0 146
159.79170951523915 -158.40331300259297 701.0 51 0 203
-80.06977458748375 -211.34055738903865 701.0 134 0 120
171.9226229702217 -164.58010727618023 701.0 122 0 132
-77.10503150643751 -230.4426482151064 701.0 186 0 68
176.54098633994502 -181.22439168643757 701.0 69 0 185
-67.8785475238773 -244.76213511499023 701.0 82 0 172
186.1583672292414 -182.93731798226105 701.0 108 0 146
-64.98446935965411 -255.87696016258317 701.0 59 0 195
-70.13996122278309 -261.76589892433753 701.0 58 0 196
-53.42651870543249 -274.8556113653459 701.0 179 0 75
201.41514409482224 -194.50434372851933 701.0 143 0 111
212.8239271711785 -198.46152277818717 701.0 61 0 193
-28.082805488425493 -291.6510861215834 701.0 255 0 0
-10.679245990965233 -305.8135930678433 701.0 239 0 15
2.7488586819878402 -314.988005765214 701.0 101 0 153
226.592037106675 -218.81738669458423 701.0 136 0 118
19.352387032549494 -316.4087310997318 701.0 135 0 119
234.09987084468207 -242.41751271412542 701.0 105 0 149
53.0312836486382 -334.8263474617517 701.0 208 0 46
233.50745646333186 -252.6069432458759 701.0 153 0 101
69.97814498043613 -343.9535713219112 701.0 230 0 24
90.38369161296222 -343.30130831444984 701.0 203 0 51
100.82544736989242 -340.38100587820855 701.0 148 0 106
220.4068081665855 -282.1078497912066 701.0 138 0 116
129.37082978585343 -337.02253396548986 701.0 201 0 53
166.61451340441363 -326.99939437713107 701.0 152 0 102
185.00000000000003 -320.4293994002423 701.0 122 0 132
-4.754513222821639 -108.8962561524225 702.0 80 0 174
-9.108902826342419 -109.62220527475375 702.0 67 0 187
-17.67709454954611 -111.60878248725055 702.0 77 0 177
30.732413248999524 -110.81750211899165 702.0 49 0 205
35.53695435311893 -109.37149937394267 702.0 54 0 200
-22.630477353870926 -113.77109252677472 702.0 61 0 193
44.07925779407195 -114.83039245915582 702.0 65 0 189
-24.614360403574256 -126.62990666474866 702.0 51 0 203
62.00487640121451 -115.39668670490549 702.0 114 0 140
-39.96741659346484 -139.38294591105625 702.0 77 0 177
110.87397589939569 -127.5459190576485 702.0 85 0 169
121.27738928776556 -128.92166166918486 702.0 62 0 192
-65.2179265746421 -181.64697094447953 702.0 102 0 152
137.88582233137674 -137.8858223313768 702.0 105 0 149
-71.21249863754086 -187.96217714688837 702.0 99 0 155
-81.18612057554921 -208.76976271934686 702.0 140 0 114
159.08152413961585 -157.69929827813698 702.0 60 0 194
-81.33750841321094 -220.47496394178376 702.0 106 0 148
170.4778950461022 -163.1970811646157 702.0 106 0 148
-78.43122953397148 -231.05095159680576 702.0 167 0 87
-67.61130914779903 -243.7985046617816 702.0 124 0 130
188.19912454017054 -186.5639019808317 702.0 74 0 180
-67.10184108659017 -259.4635676213329 702.0 57 0 197
-53.23570971005594 -273.87398418189827 702.0 156 0 98
201.41514409482224 -194.50434372851933 702.0 140 0 114
210.629866066321 -196.4155276979997 702.0 60 0 194
-27.98695973590527 -290.65568992321624 702.0 178 0 76
-10.609446997560232 -303.8148114138051 702.0 160 0 94
221.76573635234482 -212.29450812515685 702.0 119 0 135
5.480055621306903 -313.9521762791069 702.0 114 0 140
225.87269730633636 -218.12272832412523 702.0 131 0 123
20.863598224415416 -318.31699651311453 702.0 186 0 68
233.03989979862482 -243.43665521413757 702.0 105 0 149
53.0312836486382 -334.8263474617517 702.0 235 0 19
232.40303141978708 -253.62340386268272 702.0 160 0 94
69.97814498043613 -343.9535713219112 702.0 209 0 45
103.20721176712605 -337.5755788549515 702.0 165 0 89
153.79362112116345 -318.8471767201962 702.0 47 0 207
91.88076101139471 -342.9036683326193 702.0 186 0 68
125.72444987214872 -336.2653159401748 702.0 223 0 31
153.99131510442643 -326.50830750902685 702.0 55 0 199
219.76287587214813 -286.4005558451359 702.0 127 0 127
167.58185293280602 -325.3802737837796 702.0 143 0 111
183.60010635982715 -321.23356136098255 702.0 113 0 141
-4.710893835456302 -107.89720793084064 703.0 98 0 156
-9.026094618830216 -108.625639772256 703.0 73 0 181
28.987733051482273 -108.18369254437566 703.0 61 0 193
-16.70246345764608 -111.75879255989659 703.0 88 0 166
-22.825567675887054 -114.75187780717795 703.0 71 0 183
-30.523008335595115 -120.18463280363754 703.0 61 0 193
-25.556832184112857 -128.48287173282318 703.0 58 0 196
62.984956354268306 -116.00385887137944 703.0 120 0 134
-39.96741659346484 -139.38294591105625 703.0 75 0 179
108.4578240711407 -126.98779625520514 703.0 111 0 143
-57.114838152916676 -170.69825793711587 703.0 52 0 202
-64.8800098566388 -180.70579492922315 703.0 87 0 167
138.48614824654058 -137.2828712689139 703.0 116 0 138
-70.391683633153 -188.2711100389279 703.0 91 0 163
-82.09627478624257 -208.4135352279735 703.0 181 0 73
161.92745289171935 -161.9274528917194 703.0 81 0 173
169.73760281687527 -161.07497071233846 703.0 124 0 130
-78.75266899927465 -231.99788172630088 703.0 192 0 62
-67.8785475238773 -244.76213511499023 703.0 125 0 129
186.06856841330068 -184.4518578074638 703.0 62 0 192
-64.10930233391197 -257.12836746313906 703.0 54 0 200
-53.23570971005594 -273.87398418189827 703.0 203 0 51
200.6958042944836 -193.80968535806034 703.0 169 0 85
-26.90147588704025 -292.76664870695055 703.0 195 0 59
-9.283708015786106 -303.8582116143607 703.0 170 0 84
221.04337239028504 -211.60299506937457 703.0 146 0 108
5.445150808432336 -311.95248088879407 703.0 153 0 101
224.43401770565907 -216.73341158320724 703.0 130 0 124
22.252315124375944 -318.22293203288393 703.0 192 0 62
53.18771811367843 -335.81403580234684 703.0 243 0 11
231.7274412121714 -252.8861265258726 703.0 199 0 55
70.17751291485332 -344.93349602653205 703.0 234 0 20
230.9327782046585 -265.6577722384158 703.0 109 0 145
94.60238513170289 -341.12518043585254 703.0 204 0 50
106.4498530245128 -337.6158005648723 703.0 200 0 54
217.30054170739888 -285.76471890992946 703.0 139 0 115
127.89906471717524 -337.5838106966503 703.0 242 0 12
153.99131510442643 -326.50830750902685 703.0 68 0 186
165.70653240493453 -325.2173813287543 703.0 97 0 157
204.66460267029342 -303.4277515551452 703.0 58 0 196
184.00000000000003 -318.6973485926734 703.0 118 0 136
-4.710893835456302 -107.89720793084064 704.0 115 0 139
-8.55204143433507 -108.66398937691095 704.0 79 0 175
-16.071173663012093 -110.84095532380307 704.0 80 0 174
-19.795892254030058 -112.26808384339171 704.0 52 0 202
43.720889844526646 -113.89681203265862 704.0 87 0 167
62.478196068399356 -116.27757744311087 704.0 134 0 120
-38.864867170196845 -135.53789912730298 704.0 85 0 169
107.90270460037502 -127.45982245368226 704.0 96 0 158
121.27738928776556 -128.92166166918486 704.0 73 0 181
-64.42472383211785 -181.9298077807904 704.0 74 0 180
137.7759628709173 -136.57885654445792 704.0 127 0 127
-71.56678967553857 -188.89731235657436 704.0 97 0 157
-83.91187692516435 -207.68918342296035 704.0 168 0 86
161.19460150884507 -158.40549373176628 704.0 76 0 178
170.4778950461022 -163.1970811646157 704.0 115 0 139
-78.75266899927465 -231.99788172630088 704.0 167 0 87
-69.21731471559393 -245.42608529568005 704.0 80 0 174
185.3583830376774 -183.74784308300784 704.0 88 0 166
-64.35122422951163 -258.09866318941505 704.0 82 0 172
-53.0449007146794 -272.89235699845057 704.0 165 0 89
200.6958042944836 -193.80968535806034 704.0 160 0 94
213.55528087279768 -199.1435211382497 704.0 54 0 200
-28.082805488425493 -291.6510861215834 704.0 164 0 90
-9.253169502576284 -302.858678023524 704.0 178 0 76
5.427698401995054 -310.95263319363767 704.0 170 0 84
224.20250829191676 -218.4084139304459 704.0 133 0 121
23.78882535272304 -320.1173094169349 704.0 134 0 120
53.18771811367843 -335.81403580234684 704.0 255 0 0
231.7274412121714 -252.8861265258726 704.0 161 0 93
151.67641678902078 -310.9827400195118 704.0 54 0 200
229.11867311441557 -265.9053095188014 704.0 115 0 139
70.17751291485332 -344.93349602653205 704.0 213 0 41
97.85126131503446 -341.24790205810325 704.0 206 0 48
108.53169045397188 -339.0529046730071 704.0 225 0 29
217.30054170739888 -285.76471890992946 704.0 141 0 113
